ply
format ascii 1.0
element vertex 1187
property float x
property float y
property float z
property uchar red
property uchar green
property uchar blue
property float confidence
end_header
52.4650 1.2987 14.1945 37 131 141 0.913
52.7167 2.0344 13.8118 36 133 141 0.763
52.2928 1.1961 13.0653 37 131 141 0.928
52.3807 1.3823 12.1823 37 131 141 0.889
78.0582 3.2577 41.4095 35 136 141 0.703
75.4689 3.1536 38.3781 35 136 141 0.703
65.0289 0.7160 25.8751 38 129 142 0.709
64.4147 0.9057 20.5348 37 130 142 0.916
78.2190 3.0115 31.6382 35 135 141 0.795
78.0091 3.1168 29.5766 35 136 141 0.929
78.2864 6.1427 29.9874 33 142 140 0.930
74.1130 6.3423 24.2289 32 143 140 0.912
71.8553 6.6996 20.9937 32 144 140 0.909
72.1616 5.8910 21.1223 33 142 140 0.892
80.4189 3.1984 26.7245 35 136 141 0.838
51.3224 2.3060 11.9312 36 133 141 0.631
51.3880 3.0060 13.5041 35 135 141 0.399
56.8584 4.1627 22.1994 34 137 141 0.663
54.1741 1.0275 20.7222 37 130 142 0.363
75.9044 7.6373 30.6556 31 146 140 0.676
80.5712 2.8786 26.7890 35 135 141 0.724
56.7767 4.0114 26.5617 34 137 141 0.557
56.2710 2.2576 10.3793 36 133 141 0.852
53.0275 8.4371 19.8620 31 148 139 0.870
52.2919 1.0844 13.7435 37 130 142 0.904
52.5318 1.8382 14.0521 36 132 141 0.854
85.8104 10.0843 64.3625 30 152 138 0.743
57.1932 6.0309 19.1355 33 142 140 0.885
76.2331 13.1867 41.6460 30 159 136 0.814
63.2869 0.9872 20.6287 37 130 142 0.907
71.2865 9.9007 27.8368 30 152 138 0.830
75.4587 2.6021 23.5908 36 134 141 0.908
78.0834 13.7509 30.2105 30 160 135 0.885
74.3514 8.7289 21.6182 31 149 139 0.858
50.5072 4.9408 11.9049 34 139 141 0.894
56.1737 1.2040 21.0355 37 131 141 0.723
53.0575 0.7933 17.9537 37 130 142 0.837
51.2721 1.6901 13.6051 36 132 141 0.620
55.9571 8.7762 19.5164 31 149 139 0.875
56.3946 3.7753 19.2790 35 137 141 0.754
53.6775 6.0995 15.4514 33 142 140 0.940
51.8364 2.1805 11.8506 36 133 141 0.767
52.1912 1.7341 12.1274 36 132 141 0.833
69.0172 0.5034 28.9348 38 129 142 0.804
65.6412 0.7891 23.8388 37 130 142 0.879
75.1795 4.4188 30.6840 34 138 141 0.898
85.7062 5.9943 37.3566 33 142 140 0.931
83.6428 15.7967 34.7226 33 166 133 0.686
104.8822 12.5876 61.3246 30 157 136 0.760
65.5622 1.2884 18.6007 37 131 141 0.914
77.2010 10.6517 25.8517 30 153 138 0.835
80.2135 4.5466 32.0375 34 138 141 0.798
78.4456 4.9423 26.4505 34 139 141 0.827
76.4215 13.0932 25.5304 30 159 136 0.842
69.7556 2.1756 33.0382 36 133 141 0.707
75.3839 11.1120 26.4506 30 154 137 0.913
51.3713 1.4506 16.1152 37 131 141 0.659
52.4980 4.8261 17.1000 34 139 141 0.845
54.9536 6.1872 18.6806 33 142 140 0.860
53.7839 8.6215 22.3237 31 148 139 0.847
54.5665 3.8666 20.5964 35 137 141 0.744
54.2867 5.5731 15.7763 33 141 140 0.877
80.8438 8.9756 50.1090 31 149 139 0.810
73.0211 1.6839 34.4225 36 132 141 0.909
74.0099 6.8497 28.4092 32 144 140 0.918
65.3942 0.9034 20.1853 37 130 142 0.900
64.8323 1.2440 19.1762 37 131 141 0.912
81.5133 9.9900 32.6255 30 152 138 0.806
81.9179 13.1881 30.4602 30 159 136 0.827
72.5724 7.7813 23.4002 31 146 140 0.901
66.1114 1.3762 16.7984 37 131 141 0.854
54.7836 6.9045 18.0903 32 144 140 0.926
50.9108 5.1304 12.2876 33 140 141 0.816
58.4646 7.9278 20.3058 31 147 139 0.697
69.1532 5.5238 35.3985 33 141 140 0.618
52.0897 8.0169 19.9893 31 147 139 0.932
74.5529 7.2847 22.1895 32 145 140 0.898
71.5180 6.9488 21.2688 32 144 140 0.885
51.9504 3.6851 20.4227 35 137 141 0.759
50.4691 1.0883 16.1854 37 130 142 0.909
54.5349 8.4327 17.8649 31 148 139 0.915
52.7646 2.7368 14.2121 35 135 141 0.881
70.5329 9.0840 37.3008 31 150 139 0.847
56.1567 6.5880 17.8142 32 143 140 0.874
70.4411 1.6234 32.2620 36 132 141 0.845
77.9855 5.0748 37.1591 34 139 141 0.720
68.7903 1.4241 22.8032 37 131 141 0.797
81.2131 9.4648 32.8398 30 151 138 0.931
77.4117 4.0810 25.6413 34 137 141 0.889
76.2883 10.7376 24.4657 30 153 138 0.842
76.5959 12.1684 24.1277 30 156 137 0.852
54.9080 4.8043 18.9346 34 139 141 0.706
55.5773 4.7015 24.3982 34 139 141 0.387
56.9229 7.8242 25.7070 31 146 140 0.851
49.1749 2.2569 10.4465 36 133 141 0.905
52.8736 5.1440 13.4621 33 140 141 0.719
73.7846 3.1704 36.3176 35 136 141 0.785
77.6339 7.0815 37.1398 32 145 140 0.869
76.8606 10.8498 33.1609 30 153 138 0.908
81.8123 13.7872 35.0502 30 160 135 0.692
78.5859 9.2474 29.2986 31 150 139 0.819
68.6962 9.2418 24.9356 31 150 139 0.861
76.2329 10.8040 25.6486 30 153 138 0.891
77.1063 10.0353 25.9717 30 152 138 0.835
53.8285 8.2937 16.9385 31 148 139 0.858
51.8154 5.1519 15.9605 33 140 141 0.929
51.3061 1.1044 17.7424 37 130 142 0.626
53.3698 4.3838 14.9715 34 138 141 0.915
50.0166 4.6575 15.2071 34 138 141 0.876
53.9977 8.9800 19.7567 31 149 139 0.893
51.2453 2.0114 18.1316 36 133 141 0.670
51.4424 6.3220 20.3131 32 143 140 0.899
54.5938 5.9132 20.9200 33 142 140 0.884
53.5101 3.3847 16.5622 35 136 141 0.823
55.2870 5.1246 19.8615 33 140 141 0.872
51.4690 2.1875 12.7894 36 133 141 0.925
52.2161 2.6664 13.3075 36 134 141 0.912
52.0337 2.4628 13.0480 36 134 141 0.779
55.2551 3.6280 16.9671 35 137 141 0.592
75.2563 13.0206 30.1385 30 159 136 0.889
86.7092 9.3465 47.6673 31 150 139 0.808
49.3773 2.4451 11.0389 36 134 141 0.824
68.8534 3.7227 28.6326 35 137 141 0.849
51.6393 2.3084 12.4639 36 133 141 0.927
54.6555 2.7200 15.9856 35 135 141 0.778
89.6968 13.4780 44.9854 30 160 135 0.837
53.4399 9.1951 19.9618 31 150 139 0.917
52.4479 7.1824 16.4703 32 145 140 0.920
53.1662 7.7933 16.5902 31 146 140 0.936
54.0403 7.7389 16.8083 31 146 140 0.913
53.3534 1.3532 14.9178 37 131 141 0.734
52.3523 2.0391 13.3932 36 133 141 0.801
55.3902 4.7275 17.8817 34 139 141 0.873
75.0604 1.6048 33.5039 36 132 141 0.747
69.8723 2.2863 25.7882 36 133 141 0.917
75.0884 7.1662 26.7198 32 145 140 0.872
50.5546 4.0909 11.0152 34 137 141 0.878
52.5470 1.5833 18.3119 36 132 141 0.502
50.3379 2.9114 16.0382 35 135 141 0.816
51.4781 2.4674 13.0023 36 134 141 0.360
51.4695 7.0549 20.5426 32 144 140 0.912
51.0952 5.9978 14.8381 33 142 140 0.886
53.6904 8.4533 18.2740 31 148 139 0.882
80.9256 12.2654 35.3328 30 157 136 0.919
53.5253 7.8796 16.6268 31 147 139 0.937
50.9944 8.4193 21.1184 31 148 139 0.917
50.4361 5.7973 17.6654 33 141 140 0.935
51.3639 8.2290 19.0857 31 147 139 0.847
52.5648 8.3137 21.6013 31 148 139 0.832
53.2752 5.0740 17.4756 34 139 141 0.845
50.7244 3.9813 14.5865 34 137 141 0.734
56.5320 4.9151 20.4348 34 139 141 0.813
59.1521 5.4725 22.6547 33 140 141 0.696
62.0812 0.9911 21.4514 37 130 142 0.836
80.7677 11.2227 39.0353 30 154 137 0.749
75.3365 1.9896 31.1816 36 133 141 0.899
75.2974 10.4422 29.1262 30 153 138 0.931
83.9825 6.1054 32.2657 33 142 140 0.876
50.7467 3.7671 16.7378 35 137 141 0.548
62.4029 6.3990 33.9638 32 143 140 0.390
52.5322 4.1723 17.6182 34 137 141 0.739
83.7699 17.4907 49.2942 35 169 130 0.452
50.2060 3.0155 17.4446 35 135 141 0.792
53.5320 3.3229 17.2146 35 136 141 0.489
50.9607 7.7996 19.6646 31 146 140 0.864
50.8067 6.5139 18.9645 32 143 140 0.918
51.7053 8.2539 21.9844 31 148 139 0.809
54.8840 6.4548 20.3088 32 143 140 0.879
58.7902 1.7460 19.6407 36 132 141 0.604
73.6573 4.9409 33.7115 34 139 141 0.813
72.6532 2.0927 32.1337 36 133 141 0.776
72.2631 2.0891 30.9970 36 133 141 0.697
78.3255 13.6787 31.4884 30 160 135 0.796
78.6023 12.2495 29.7808 30 157 136 0.806
80.4120 8.9354 35.3275 31 149 139 0.752
50.4318 1.4570 15.9863 37 131 141 0.910
51.1738 7.9157 21.5870 31 147 139 0.914
51.0520 3.1225 14.6015 35 136 141 0.523
51.6564 7.7734 21.7822 31 146 140 0.839
50.7113 6.8604 20.8838 32 144 140 0.889
50.5797 2.1198 18.2021 36 133 141 0.853
50.6936 7.0782 18.7643 32 145 140 0.935
52.8157 1.9206 22.7140 36 133 141 0.653
50.6489 2.7815 15.9257 35 135 141 0.924
52.8884 4.8897 15.2170 34 139 141 0.835
52.2450 1.8268 12.0579 36 132 141 0.937
57.5040 3.3949 18.0167 35 136 141 0.712
72.3976 2.3503 27.2039 36 134 141 0.884
75.0944 2.8802 28.9230 35 135 141 0.766
53.3139 2.5192 13.1524 36 134 141 0.523
50.3668 2.7883 13.3760 35 135 141 0.669
51.8447 6.7891 19.4594 32 144 140 0.869
53.1198 7.1010 15.1580 32 145 140 0.785
90.6561 16.1089 42.8668 33 166 133 0.508
51.4874 3.2348 21.0036 35 136 141 0.716
56.6393 7.2606 18.6838 32 145 140 0.923
58.1414 6.0627 27.0507 33 142 140 0.869
51.5344 2.8152 15.8802 35 135 141 0.328
54.9534 6.0951 19.1205 33 142 140 0.909
50.5216 6.8461 19.5044 32 144 140 0.921
50.9208 3.7067 20.2411 35 137 141 0.821
55.4307 1.2455 34.5108 37 131 141 0.586
53.8493 5.6439 15.9450 33 141 140 0.902
55.7886 5.2519 17.1873 33 140 141 0.887
54.3679 3.7607 16.1398 35 137 141 0.503
70.8897 8.1646 34.4795 31 147 139 0.741
74.1875 8.3842 31.7706 31 148 139 0.922
68.0381 1.2124 24.8622 37 131 141 0.887
74.7550 10.0271 27.9570 30 152 138 0.904
48.7470 1.9494 9.4708 36 133 141 0.547
51.0669 2.9384 15.6252 35 135 141 0.852
71.6772 3.6650 26.0408 35 137 141 0.816
53.2882 8.2326 18.1839 31 147 139 0.918
53.8065 5.7764 16.3090 33 141 140 0.908
53.7106 4.4642 14.8331 34 138 141 0.906
56.5432 3.8190 18.2667 35 137 141 0.776
77.0323 4.5993 39.8671 34 138 141 0.905
72.6343 8.8107 29.4116 31 149 139 0.927
67.8062 3.1523 22.5192 35 136 141 0.843
73.4603 6.0202 27.0156 33 142 140 0.859
50.5945 2.2764 13.7514 36 133 141 0.673
49.7767 2.5614 10.8524 36 134 141 0.296
76.3740 13.8641 32.6055 31 161 135 0.862
50.2901 6.0671 18.2381 33 142 140 0.926
49.6190 2.6034 10.1097 36 134 141 0.845
51.6506 1.9939 13.5036 36 133 141 0.663
52.1015 8.4585 19.2589 31 148 139 0.906
64.6271 7.4785 39.8387 31 146 140 0.812
57.2881 5.1407 23.8630 33 140 141 0.602
54.6400 6.3028 19.0091 32 143 140 0.917
54.1099 2.8711 16.0456 35 135 141 0.555
52.3119 2.6095 13.2216 36 134 141 0.883
56.3715 5.3625 18.8540 33 140 141 0.742
52.1246 1.6853 12.4952 36 132 141 0.915
52.0834 2.0613 12.3987 36 133 141 0.888
97.7308 20.2925 73.2508 42 176 126 0.872
69.0287 6.9256 27.2801 32 144 140 0.667
65.9548 1.1233 21.1556 37 130 142 0.886
68.9056 8.9064 23.4686 31 149 139 0.770
51.2472 1.9059 20.2870 36 132 141 0.806
50.5437 6.1379 17.0367 33 142 140 0.828
52.0273 1.7735 12.5720 36 132 141 0.437
50.8552 2.4548 19.1568 36 134 141 0.896
72.4406 8.9448 39.8893 31 149 139 0.765
51.2067 7.5634 20.7926 31 146 140 0.892
50.2619 2.4157 15.4698 36 134 141 0.925
52.2518 1.9898 14.9396 36 133 141 0.568
55.4300 6.0208 21.2865 33 142 140 0.781
53.0395 3.2916 14.3810 35 136 141 0.865
55.6562 5.7887 17.0272 33 141 140 0.907
55.4712 6.6796 16.8420 32 144 140 0.911
52.4367 4.2011 17.2043 34 137 141 0.702
87.1069 15.0958 47.3903 32 164 133 0.901
67.4969 8.7530 24.2476 31 149 139 0.766
60.8378 1.1874 16.6616 37 131 141 0.805
69.8541 1.2912 23.3831 37 131 141 0.886
49.6003 4.4394 14.6869 34 138 141 0.705
53.7221 4.4795 27.8048 34 138 141 0.856
52.0146 6.9752 16.2251 32 144 140 0.938
62.6057 7.8698 24.6325 31 147 139 0.831
65.9751 5.8009 47.0243 33 141 140 0.741
56.7021 5.1368 25.1337 33 140 141 0.359
52.1439 4.2074 14.7552 34 137 141 0.937
51.1302 1.7946 12.4291 36 132 141 0.844
62.2214 8.7025 24.2473 31 149 139 0.788
63.1789 0.5309 23.5058 38 129 142 0.545
50.2135 5.6791 15.8994 33 141 140 0.824
58.9701 0.1189 23.8969 38 128 142 0.615
63.0101 6.2423 25.4878 33 142 140 0.581
50.7698 3.6550 19.1091 35 137 141 0.904
52.1583 4.8940 24.3393 34 139 141 0.837
52.5493 8.7738 25.4412 31 149 139 0.894
52.1838 1.4314 23.0007 37 131 141 0.835
50.5977 2.7001 16.4141 36 134 141 0.927
51.6412 1.5811 16.4145 36 132 141 0.834
54.3783 5.9622 19.3812 33 142 140 0.895
51.4019 3.0979 15.6367 35 135 141 0.902
52.9420 4.6997 16.0053 34 139 141 0.897
71.4545 0.9821 31.2965 37 130 142 0.896
64.8541 9.4123 19.7258 31 150 139 0.816
74.2888 2.2830 26.2058 36 133 141 0.869
53.8001 9.7948 25.7195 30 151 138 0.912
50.1332 2.5171 10.5058 36 134 141 0.788
50.3911 5.9639 18.5770 33 142 140 0.928
54.9024 15.3949 36.4645 32 165 133 0.890
51.7797 3.7178 22.7963 35 137 141 0.781
51.0426 2.7840 18.7420 35 135 141 0.801
51.0112 2.7715 18.6247 35 135 141 0.824
50.8589 1.4186 15.0777 37 131 141 0.906
54.8444 4.8742 22.5393 34 139 141 0.886
54.7953 5.8155 17.1118 33 141 140 0.905
74.3646 6.9662 34.7300 32 144 140 0.342
65.1148 2.0311 24.0606 36 133 141 0.740
66.6614 0.6776 24.7552 38 129 142 0.759
78.0353 3.0114 31.2401 35 135 141 0.560
51.8748 2.0841 13.6272 36 133 141 0.609
52.2370 5.4555 16.0296 33 140 141 0.924
65.5102 7.7781 32.5607 31 146 140 0.767
52.8000 2.7125 16.2598 35 135 141 0.743
51.4712 3.3363 21.5672 35 136 141 0.821
77.9273 4.2103 33.1850 34 137 141 0.897
51.9692 8.9139 24.7181 31 149 139 0.887
52.7555 8.1068 18.4658 31 147 139 0.905
53.2484 4.8014 18.7112 34 139 141 0.673
54.7316 7.0716 20.5354 32 145 140 0.910
52.9688 5.7209 16.6839 33 141 140 0.816
52.3721 4.5082 17.3507 34 138 141 0.763
51.9181 1.4786 13.3553 37 131 141 0.850
54.7018 5.3875 16.0888 33 140 141 0.885
63.9078 4.6586 25.2862 34 138 141 0.443
85.6930 15.0426 43.0798 32 164 133 0.894
73.5282 8.1477 26.3607 31 147 139 0.767
75.7913 13.2680 28.3183 30 159 136 0.937
76.7776 1.8330 27.5649 36 132 141 0.827
81.0933 9.1210 35.9044 31 150 139 0.893
54.6682 6.1449 22.0135 33 142 140 0.896
55.0680 5.0375 20.4863 34 139 141 0.882
55.6353 7.6922 23.1933 31 146 140 0.901
66.4816 8.3388 46.4214 31 148 139 0.855
56.7334 5.6598 20.2367 33 141 140 0.866
56.3728 5.5426 18.7813 33 141 140 0.896
54.5387 1.3801 14.8651 37 131 141 0.600
50.9150 1.9826 10.6010 36 133 141 0.252
77.0704 5.2982 34.6514 33 140 141 0.488
73.1164 1.4650 29.8055 37 131 141 0.602
67.3213 1.6223 23.7713 36 132 141 0.747
77.3587 9.1357 28.2492 31 150 139 0.851
51.7132 2.2671 11.7658 36 133 141 0.767
49.9257 2.5325 9.9747 36 134 141 0.941
59.8455 21.8280 53.3315 47 179 123 0.898
58.3769 5.6717 31.8251 33 141 140 0.619
51.6238 1.4545 15.7960 37 131 141 0.908
54.4328 6.3591 18.4815 32 143 140 0.887
51.8927 1.9853 13.4517 36 133 141 0.603
51.4500 1.5792 12.6406 36 132 141 0.802
53.9025 5.2326 18.3919 33 140 141 0.851
79.1357 9.1958 37.1657 31 150 139 0.428
76.6345 3.5427 29.5592 35 137 141 0.750
72.6854 2.6572 30.1111 36 134 141 0.818
69.9797 10.3543 23.9496 30 153 138 0.742
74.9735 6.0024 26.6659 33 142 140 0.909
66.3302 1.5007 19.7783 37 131 141 0.798
77.1322 11.6960 27.7917 30 155 137 0.933
75.6314 5.9304 29.2261 33 142 140 0.343
80.0034 3.4370 27.4746 35 136 141 0.841
51.9125 1.9743 12.0169 36 133 141 0.715
52.0669 4.5409 16.8173 34 138 141 0.899
78.2777 15.5987 33.5765 32 165 133 0.931
66.2021 2.4431 25.4300 36 134 141 0.580
111.7615 29.7146 65.8361 81 196 104 0.771
51.6887 1.5278 20.4639 36 132 141 0.848
61.9818 5.1254 39.8285 33 140 141 0.813
63.1317 6.1852 36.6420 33 142 140 0.490
60.3035 5.4990 26.0556 33 141 140 0.625
52.4116 2.4004 13.8917 36 134 141 0.890
54.9955 4.0442 20.3442 34 137 141 0.691
94.8422 21.2155 53.9658 44 177 125 0.512
85.9108 22.7600 41.4689 50 181 122 0.680
119.7877 38.8202 69.0474 134 212 73 0.755
70.3775 3.5337 25.1456 35 137 141 0.582
80.5914 6.8563 32.7853 32 144 140 0.905
100.0852 22.7582 53.8020 50 181 122 0.833
78.3742 12.9907 29.2770 30 158 136 0.930
78.8745 10.3923 29.0885 30 153 138 0.871
82.1080 4.3424 31.0660 34 138 141 0.910
87.1506 5.3449 33.6771 33 140 141 0.918
65.0497 9.0382 21.6044 31 149 139 0.735
81.5871 7.2595 29.2861 32 145 140 0.880
61.1900 0.1982 23.2230 38 128 142 0.629
51.3788 2.1951 11.6689 36 133 141 0.776
51.3336 2.5370 12.6416 36 134 141 0.738
58.1134 7.2497 26.5342 32 145 140 0.865
54.7106 5.6210 19.8665 33 141 140 0.788
62.4281 1.7775 21.3024 36 132 141 0.468
54.4005 5.0103 19.3133 34 139 141 0.910
52.2633 2.6827 14.9813 36 134 141 0.920
55.7418 5.8453 20.7524 33 141 140 0.848
51.9018 1.9394 13.3110 36 133 141 0.930
53.0253 3.3876 14.8710 35 136 141 0.555
54.0900 6.3663 16.3068 32 143 140 0.918
59.8401 2.0009 16.4122 36 133 141 0.761
68.2036 3.4508 21.6274 35 136 141 0.732
76.7132 13.9548 26.2415 31 161 135 0.851
51.1823 2.4940 12.2559 36 134 141 0.776
77.6100 10.6067 36.0577 30 153 138 0.854
66.4432 7.0804 49.1459 32 145 140 0.650
62.8898 7.7767 39.0795 31 146 140 0.876
54.8872 7.6444 19.9380 31 146 140 0.921
54.4052 5.6934 17.1727 33 141 140 0.915
54.6575 4.7287 18.7366 34 139 141 0.817
74.9792 2.1821 35.9243 36 133 141 0.882
72.6172 6.6046 24.0071 32 143 140 0.764
104.9224 25.1433 55.1376 59 186 117 0.658
63.8051 1.3318 17.4149 37 131 141 0.814
80.6802 11.1851 28.3137 30 154 137 0.931
83.2076 13.3753 29.8148 30 159 136 0.897
78.1755 3.7608 25.4247 35 137 141 0.865
53.7343 6.1995 17.9529 33 142 140 0.935
53.9420 5.7424 17.2418 33 141 140 0.928
107.0722 26.7494 54.5189 66 190 113 0.806
54.4923 4.9542 18.0353 34 139 141 0.808
54.5716 6.4901 17.7928 32 143 140 0.911
77.7427 11.1295 34.1781 30 154 137 0.884
80.3900 12.1273 28.3625 30 156 137 0.862
63.1166 4.1996 44.3120 34 137 141 0.789
57.3756 3.7983 29.6827 35 137 141 0.671
52.4786 2.7796 17.6249 35 135 141 0.787
55.3548 8.0877 22.4548 31 147 139 0.875
54.5690 4.8602 19.5849 34 139 141 0.848
55.7983 4.6958 19.8960 34 139 141 0.844
54.5884 4.7176 19.2804 34 139 141 0.856
57.8491 7.9629 22.0651 31 147 139 0.906
55.2547 6.9972 16.4870 32 144 140 0.897
65.5410 9.3581 28.4928 31 150 139 0.746
66.5357 10.9300 27.1847 30 153 138 0.681
105.2883 22.9742 54.9335 51 182 121 0.636
76.6799 2.2729 25.0741 36 133 141 0.604
79.4784 14.4544 31.1120 31 162 134 0.822
78.6507 11.5633 25.9244 30 155 137 0.896
77.6373 8.2362 25.1649 31 147 139 0.925
75.7126 3.5810 23.3474 35 137 141 0.659
79.0033 4.4188 25.1849 34 138 141 0.819
71.9465 6.6920 21.2070 32 144 140 0.858
94.7590 18.5284 34.6108 37 171 129 0.824
74.8230 8.3038 26.2684 31 148 139 0.822
53.7779 6.8561 17.2565 32 144 140 0.934
54.2183 6.8465 17.1761 32 144 140 0.939
68.9540 7.4413 36.7592 32 145 140 0.847
66.8578 1.2394 25.0920 37 131 141 0.875
89.8986 5.9128 34.5550 33 142 140 0.915
78.2455 13.9565 26.8124 31 161 135 0.926
56.2180 6.0095 24.0914 33 142 140 0.868
57.2318 5.4976 21.8402 33 141 140 0.763
55.9601 5.8090 19.6233 33 141 140 0.920
54.7508 5.9263 17.4382 33 142 140 0.901
54.2040 5.9628 16.1309 33 142 140 0.932
56.8840 1.4837 13.9101 37 131 141 0.894
84.7948 5.0444 29.3625 34 139 141 0.809
67.6352 9.1472 19.4167 31 150 139 0.606
81.9654 8.6695 26.1843 31 149 139 0.819
78.8291 14.0584 26.9751 31 161 135 0.878
56.8812 9.6774 24.8592 30 151 138 0.888
89.8798 4.8277 33.7229 34 139 141 0.886
80.2431 3.1335 28.2514 35 136 141 0.740
57.9961 6.0517 20.3599 33 142 140 0.837
73.6390 5.4534 27.6355 33 140 141 0.867
54.7117 5.4891 21.6033 33 141 140 0.878
53.5142 1.0315 16.4629 37 130 142 0.831
54.1402 6.8490 16.5671 32 144 140 0.941
55.2958 5.3007 16.8772 33 140 141 0.879
55.8603 6.1558 17.5399 33 142 140 0.822
50.9962 2.5462 10.6732 36 134 141 0.890
70.6390 9.8096 27.4094 30 151 138 0.920
64.9836 1.1642 21.5753 37 131 141 0.860
75.8505 1.7487 26.9790 36 132 141 0.566
73.2730 12.4180 27.5705 30 157 136 0.780
82.8190 6.0522 28.7000 33 142 140 0.871
79.2597 13.7529 31.4428 30 160 135 0.831
76.4929 1.6572 24.0071 36 132 141 0.817
82.2331 15.4120 27.9260 32 165 133 0.918
72.2963 8.9493 21.6032 31 149 139 0.822
82.4495 13.8522 27.8503 31 161 135 0.926
51.1802 2.6792 12.2899 36 134 141 0.831
54.4981 4.5583 17.5893 34 138 141 0.897
54.4201 6.6092 21.7474 32 143 140 0.880
53.2771 1.4326 19.4694 37 131 141 0.757
76.6730 5.3386 28.1670 33 140 141 0.831
62.9564 4.6968 45.0127 34 139 141 0.822
57.6242 5.5950 25.8354 33 141 140 0.800
54.7411 1.9610 18.2067 36 133 141 0.745
58.4762 6.1445 20.6294 33 142 140 0.810
63.0311 7.4612 26.3247 32 145 140 0.859
71.5781 7.7638 36.4090 31 146 140 0.574
106.5596 28.3064 65.6289 73 193 109 0.803
78.9042 18.9825 30.9990 39 173 128 0.678
73.8365 12.0693 30.2560 30 156 137 0.855
81.0427 14.4235 26.3945 31 162 134 0.908
71.3682 8.0825 20.7773 31 147 139 0.812
81.2128 10.7140 25.6390 30 153 138 0.934
53.1155 2.2994 15.5455 36 133 141 0.941
82.5169 8.0660 33.6337 31 147 139 0.866
54.5230 7.2339 16.9270 32 145 140 0.915
86.5115 14.3528 57.3835 31 162 134 0.716
87.1839 5.6475 31.8218 33 141 140 0.891
79.7065 4.8448 27.4070 34 139 141 0.883
54.7831 4.8363 21.2719 34 139 141 0.871
54.2723 3.7432 18.6080 35 137 141 0.892
56.5450 9.2496 22.6082 31 150 139 0.906
55.1612 6.9309 18.3942 32 144 140 0.908
79.6804 13.8424 47.6995 31 161 135 0.684
80.3089 16.4573 39.5796 33 167 132 0.622
75.7490 12.9193 31.7333 30 158 136 0.659
69.7805 10.6734 25.5925 30 153 138 0.916
74.9907 2.7266 22.0904 35 135 141 0.787
84.6130 16.8447 28.3500 34 167 132 0.835
84.0358 12.6972 27.7252 30 158 136 0.891
81.1699 6.2629 25.3669 33 142 140 0.903
56.5319 4.5429 17.7542 34 138 141 0.829
51.1651 2.1344 12.1993 36 133 141 0.763
70.8572 2.9523 22.1627 35 135 141 0.546
51.1302 2.6184 11.7693 36 134 141 0.739
85.2781 7.5411 28.7145 31 146 140 0.811
59.4418 6.7854 23.4970 32 144 140 0.809
68.5180 1.3393 21.0618 37 131 141 0.629
92.6349 2.8128 48.4139 35 135 141 0.594
54.6991 4.9736 21.4953 34 139 141 0.881
55.0389 4.9266 21.7452 34 139 141 0.870
59.1084 11.7873 30.3549 30 155 137 0.895
56.5970 9.0115 24.3653 31 149 139 0.901
55.2203 7.6264 21.2327 31 146 140 0.912
55.0265 4.4921 20.2638 34 138 141 0.846
55.4302 7.2927 17.6007 32 145 140 0.919
65.5120 1.2421 18.5156 37 131 141 0.700
81.6595 12.0150 28.4187 30 156 137 0.794
73.2963 8.9998 22.7430 31 149 139 0.856
74.6646 2.5917 23.1524 36 134 141 0.574
68.2203 0.8233 18.1436 37 130 142 0.570
79.7262 15.0962 24.4341 32 164 133 0.913
74.9051 2.6770 21.4672 36 134 141 0.683
63.8887 2.0840 15.6218 36 133 141 0.462
78.6127 13.9188 23.6955 31 161 135 0.779
65.1372 1.3078 16.1791 37 131 141 0.798
75.0167 7.5765 20.9894 31 146 140 0.860
78.5715 1.9586 21.9473 36 133 141 0.811
73.1385 2.8475 19.1721 35 135 141 0.783
55.6865 7.7264 20.6188 31 146 140 0.923
52.4097 1.8987 14.5388 36 132 141 0.779
55.9885 8.2867 21.1466 31 148 139 0.914
64.7588 1.1287 22.5607 37 131 141 0.863
84.7285 7.1109 30.0008 32 145 140 0.912
54.2509 5.4786 20.1406 33 140 141 0.898
67.9380 21.3842 48.9910 46 178 124 0.908
55.2540 6.4260 20.4333 32 143 140 0.902
56.4289 9.2524 22.2446 31 150 139 0.884
55.1264 7.3617 18.7631 32 145 140 0.926
73.3656 1.2682 35.6652 37 131 141 0.887
71.8149 1.5123 30.3594 37 131 141 0.866
73.1877 10.9662 22.9374 30 153 138 0.919
81.9869 14.5490 30.8321 31 162 134 0.769
73.5601 9.8186 24.7518 30 151 138 0.890
85.5083 17.2484 26.6769 35 168 131 0.763
77.7140 12.8719 22.3722 30 158 136 0.892
84.4450 6.7120 29.9311 32 144 140 0.853
79.2703 10.8375 22.7037 30 153 138 0.935
76.6600 1.0323 20.5804 37 130 142 0.802
89.7219 8.3424 43.3548 31 148 139 0.834
87.5446 15.4315 40.3881 32 165 133 0.759
55.2510 6.8316 19.2929 32 144 140 0.910
70.6016 2.9183 32.0754 35 135 141 0.779
61.5494 7.5923 34.4783 31 146 140 0.747
61.4174 13.7016 31.8185 30 160 135 0.911
54.5224 5.9837 18.7258 33 142 140 0.941
70.3073 8.3679 37.1042 31 148 139 0.828
91.3238 11.4653 57.5793 30 155 137 0.898
97.3887 16.7824 55.7004 34 167 132 0.745
86.6471 0.4326 38.0150 38 129 142 0.849
74.8329 13.1116 24.7635 30 159 136 0.730
82.8512 9.2268 29.2053 31 150 139 0.895
86.0110 15.8226 27.4055 33 166 133 0.704
86.9478 8.5427 26.1138 31 148 139 0.783
81.6981 8.0217 22.9583 31 147 139 0.903
75.1179 6.3010 20.0168 32 143 140 0.689
87.3095 9.6314 24.4994 30 151 138 0.597
55.4761 4.0998 21.4043 34 137 141 0.891
55.1662 5.4783 17.1636 33 140 141 0.905
57.1642 2.8514 17.8803 35 135 141 0.659
69.8264 4.9534 22.5111 34 139 141 0.834
55.2972 5.3651 20.5809 33 140 141 0.865
55.1914 5.0697 18.4656 34 139 141 0.920
55.5049 5.8782 19.1150 33 142 140 0.916
72.8210 8.9646 45.1789 31 149 139 0.643
74.1310 8.4338 46.6131 31 148 139 0.652
88.4155 12.4561 48.3312 30 157 136 0.639
96.4299 13.3949 40.6150 30 159 136 0.366
77.4095 2.1326 25.6216 36 133 141 0.874
66.9284 1.4028 18.8239 37 131 141 0.791
90.9941 19.3328 40.1809 39 173 128 0.866
98.0778 25.6809 37.0600 62 188 115 0.512
79.5631 13.1413 25.8862 30 159 136 0.620
83.3058 6.8461 24.4671 32 144 140 0.767
71.4330 7.0937 18.8776 32 145 140 0.688
68.6208 1.8535 16.8563 36 132 141 0.830
73.3344 8.4852 19.1394 31 148 139 0.799
83.1576 13.2069 23.5111 30 159 136 0.935
83.6795 4.7385 22.4850 34 139 141 0.905
75.0548 8.4750 18.7951 31 148 139 0.788
71.9789 3.1569 34.6846 35 136 141 0.840
77.8679 6.1833 22.6167 33 142 140 0.906
91.6556 9.6173 35.6778 30 151 138 0.862
68.5941 1.4406 32.0384 37 131 141 0.739
71.1262 1.0049 17.5829 37 130 142 0.739
83.6155 1.7519 28.5143 36 132 141 0.759
81.5909 10.4939 27.1076 30 153 138 0.883
58.3582 9.8183 24.0846 30 151 138 0.890
56.2619 6.8830 20.5539 32 144 140 0.918
55.5818 5.2414 18.7759 33 140 141 0.905
55.8884 6.0166 18.7924 33 142 140 0.903
56.0314 6.4534 17.9058 32 143 140 0.917
55.9624 5.6673 17.2337 33 141 140 0.916
79.1916 8.2116 43.9579 31 147 139 0.908
51.6471 2.6098 11.4949 36 134 141 0.928
76.8676 11.7555 42.8441 30 155 137 0.758
67.3087 7.9135 20.0193 31 147 139 0.788
88.7073 16.1243 30.3449 33 166 133 0.882
65.9420 2.4693 17.0204 36 134 141 0.381
78.3605 14.3428 23.0625 31 162 134 0.797
72.5748 6.3398 19.7704 32 143 140 0.685
80.4233 11.6452 25.7252 30 155 137 0.914
81.9348 6.2717 22.0359 33 142 140 0.887
79.6867 3.8852 21.0186 35 137 141 0.788
71.9750 6.9964 17.1226 32 144 140 0.800
92.1329 13.7580 24.6478 30 160 135 0.872
77.8870 4.5341 19.0762 34 138 141 0.683
84.9206 6.5640 21.5863 32 143 140 0.896
79.9160 10.3099 45.2190 30 153 138 0.891
93.6626 23.0677 54.1865 51 182 121 0.582
59.0295 6.9946 21.0337 32 144 140 0.865
69.8200 2.6137 34.1486 36 134 141 0.852
75.8284 10.9600 51.8272 30 153 138 0.859
78.9661 10.3351 34.4933 30 153 138 0.873
81.4596 13.4339 36.3011 30 160 135 0.562
72.7991 5.4700 18.2571 33 140 141 0.789
70.5837 5.0119 34.9770 34 139 141 0.889
63.9897 1.1405 26.5733 37 131 141 0.891
72.6417 0.9007 36.0525 37 130 142 0.885
70.8754 3.0624 33.3397 35 135 141 0.878
75.6677 2.5252 34.9541 36 134 141 0.900
74.8638 1.8995 33.7041 36 132 141 0.631
65.4336 0.9982 24.4428 37 130 142 0.865
75.8925 9.9996 34.5491 30 152 138 0.470
75.2889 1.3749 30.5632 37 131 141 0.847
78.2287 15.0990 31.7334 32 164 133 0.841
65.8908 1.3039 15.4550 37 131 141 0.634
75.9837 1.1743 18.9049 37 131 141 0.770
74.6759 7.5759 21.7151 31 146 140 0.412
82.8355 5.1980 21.6269 33 140 141 0.797
83.7926 6.8579 21.9634 32 144 140 0.806
70.6323 3.7823 16.7685 35 137 141 0.564
69.4712 1.1654 15.7337 37 131 141 0.782
59.3699 2.1391 12.0776 36 133 141 0.533
84.5456 7.0138 24.9684 32 144 140 0.856
80.7019 9.6570 40.3414 30 151 138 0.470
69.8290 7.0465 28.8481 32 144 140 0.847
66.2153 4.4238 28.1139 34 138 141 0.839
89.7180 4.6933 40.8411 34 139 141 0.341
80.1830 2.9215 32.8726 35 135 141 0.344
86.0618 9.0117 34.9697 31 149 139 0.923
93.1688 17.8131 30.8065 36 170 130 0.751
85.3289 11.2020 21.6428 30 154 137 0.934
65.2773 15.3632 34.6558 32 164 133 0.912
75.8555 13.5480 45.1812 30 160 135 0.807
71.5431 7.2444 37.1551 32 145 140 0.777
76.7304 7.3798 37.3337 32 145 140 0.697
76.8630 14.2152 30.5113 31 162 134 0.903
80.1561 14.7520 27.9493 31 163 134 0.689
72.6103 10.9609 20.7003 30 153 138 0.870
107.6983 22.3051 30.9551 48 180 122 0.917
66.6353 2.9565 14.7196 35 135 141 0.835
71.6341 6.3325 16.6678 32 143 140 0.807
63.2670 2.8049 13.5481 35 135 141 0.871
75.4923 5.9661 17.7856 33 142 140 0.672
71.9127 7.6147 15.9460 31 146 140 0.791
72.0581 5.2969 18.0939 33 140 141 0.695
81.3798 13.2540 22.3675 30 159 136 0.863
76.9235 4.1041 28.2266 34 137 141 0.899
77.2027 7.3835 27.1154 32 145 140 0.496
101.0211 25.2355 54.9696 59 186 117 0.820
76.5897 4.2295 37.4423 34 137 141 0.814
77.6886 1.7565 30.2639 36 132 141 0.403
66.5240 1.1887 19.1664 37 131 141 0.826
72.7495 10.5965 41.0069 30 153 138 0.803
88.4283 13.7035 62.7479 30 160 135 0.624
69.1068 5.4085 35.5173 33 140 141 0.858
72.9455 11.1518 40.3118 30 154 137 0.877
69.6801 6.0927 35.7430 33 142 140 0.789
73.2235 8.2274 40.4970 31 147 139 0.860
74.3492 9.3980 41.2095 31 150 139 0.787
81.3893 8.4364 40.1741 31 148 139 0.410
74.7271 1.2971 31.3112 37 131 141 0.630
69.4918 10.3773 26.6015 30 153 138 0.775
77.8264 9.3213 28.7261 31 150 139 0.928
78.2070 10.2109 28.7032 30 152 138 0.924
111.3597 20.9800 40.0484 44 177 125 0.743
78.4768 5.1465 19.2591 33 140 141 0.757
91.6413 12.7370 28.5913 30 158 136 0.844
85.0639 12.4392 21.3836 30 157 136 0.916
69.5728 3.5233 15.4761 35 137 141 0.737
97.6827 19.0793 25.2641 39 173 128 0.730
74.0874 7.3180 17.0539 32 145 140 0.830
85.7516 6.9279 20.6427 32 144 140 0.739
76.8577 1.1933 17.4801 37 131 141 0.741
76.5232 9.6058 17.7488 30 151 138 0.879
65.0218 1.2345 13.1647 37 131 141 0.886
74.1431 4.4641 38.9979 34 138 141 0.851
124.3241 29.3117 39.8853 79 195 105 0.822
72.1298 12.7849 37.3564 30 158 136 0.902
70.3003 5.6665 35.2368 33 141 140 0.829
75.3665 11.8013 21.8457 30 155 137 0.923
80.1592 1.2870 49.5940 37 131 141 0.844
86.6652 20.1076 54.1542 41 175 127 0.894
85.5850 3.8203 38.8284 35 137 141 0.692
71.1483 1.3167 23.2572 37 131 141 0.354
68.9367 1.0489 19.4773 37 130 142 0.713
74.5743 5.9339 21.0098 33 142 140 0.683
78.5358 3.6645 21.9850 35 137 141 0.807
87.5243 1.5279 24.9770 36 132 141 0.492
85.9628 7.3937 20.1741 32 145 140 0.761
63.7988 1.0366 27.6588 37 130 142 0.864
78.1495 12.8192 43.5296 30 158 136 0.870
64.7095 1.0247 26.2503 37 130 142 0.861
86.9892 12.1368 47.0620 30 156 137 0.893
78.8282 11.1372 37.4938 30 154 137 0.876
113.6352 31.4254 72.7660 89 199 100 0.557
71.1315 7.1424 16.2517 32 145 140 0.556
73.9698 10.1057 17.1703 30 152 138 0.646
80.2344 12.5288 18.6798 30 157 136 0.925
77.1102 2.2735 17.0787 36 133 141 0.644
89.9664 14.7349 21.2475 31 163 134 0.941
62.3955 2.8358 12.5651 35 135 141 0.268
89.3312 16.8421 28.2428 34 167 132 0.924
75.6997 12.2873 42.3331 30 157 136 0.871
86.2216 7.0005 33.7118 32 144 140 0.726
72.6791 1.6835 24.7705 36 132 141 0.784
69.2528 6.0951 37.1224 33 142 140 0.827
69.2225 9.3603 35.7984 31 150 139 0.831
72.7199 3.2452 32.0303 35 136 141 0.886
89.8712 7.6498 48.3245 31 146 140 0.721
80.0193 5.2327 34.8164 33 140 141 0.657
98.4438 29.0840 48.8745 77 194 107 0.850
73.3982 6.9721 21.5114 32 144 140 0.417
81.2715 12.5900 25.7964 30 157 136 0.845
73.0915 0.8296 20.0038 37 130 142 0.745
63.7301 4.9520 14.5995 34 139 141 0.847
135.4827 42.1042 39.0971 154 216 60 0.762
67.1521 5.5551 14.0487 33 141 140 0.849
85.4723 9.6667 19.0574 30 151 138 0.934
77.3695 1.7229 16.6495 36 132 141 0.710
86.3082 13.7861 19.7050 30 160 135 0.939
92.0315 14.7662 21.3433 31 163 134 0.902
74.3826 7.7730 15.6309 31 146 140 0.719
61.8593 4.4505 13.3386 34 138 141 0.917
83.3807 2.8773 25.4606 35 135 141 0.726
69.6122 1.2210 34.4611 37 131 141 0.817
75.1511 10.7790 41.6451 30 153 138 0.874
71.8608 5.7004 34.4017 33 141 140 0.858
64.5554 1.0604 24.6739 37 130 142 0.850
78.7797 2.3297 32.6768 36 134 141 0.879
124.8271 42.6482 68.0317 157 217 58 0.580
69.7736 9.1859 21.3803 31 150 139 0.708
72.4691 11.4653 23.0004 30 155 137 0.718
62.0915 4.4901 12.8438 34 138 141 0.930
122.6516 31.0269 31.6214 87 198 101 0.475
66.3259 3.5846 13.7083 35 137 141 0.821
86.8247 6.8956 19.8427 32 144 140 0.837
86.9956 3.1330 19.3334 35 136 141 0.343
82.3727 10.2773 18.2756 30 153 138 0.862
92.7670 7.0635 20.7025 32 144 140 0.914
115.3755 31.2233 28.3940 89 199 100 0.656
97.0400 11.7750 21.9747 30 155 137 0.921
101.7709 10.8861 23.1203 30 153 138 0.925
74.1154 7.6990 15.1161 31 146 140 0.779
76.4317 1.5462 17.7146 36 132 141 0.530
80.7994 1.9645 17.2137 36 133 141 0.683
79.7402 2.4178 27.8086 36 134 141 0.417
59.7714 0.3996 21.3701 38 129 142 0.835
119.1028 37.0416 88.8942 121 209 81 0.669
75.9827 3.1367 37.9887 35 136 141 0.792
79.8990 5.6056 40.3171 33 141 140 0.775
93.0908 14.1962 52.1310 31 162 134 0.769
98.9408 11.8917 57.6130 30 156 137 0.755
77.0740 3.4129 30.0014 35 136 141 0.899
77.9131 11.3049 26.8932 30 154 137 0.931
85.8517 12.0610 22.9727 30 156 137 0.927
81.0322 12.1581 18.9068 30 156 137 0.885
94.1814 17.1429 25.8600 35 168 131 0.878
86.5524 9.9345 18.4700 30 152 138 0.922
101.7016 15.0142 21.8470 32 164 133 0.942
64.6581 3.2711 13.7760 35 136 141 0.721
82.8134 0.4931 18.2493 38 129 142 0.592
88.9798 4.5263 30.6595 34 138 141 0.770
68.8014 8.6999 24.5675 31 149 139 0.862
73.6355 2.6857 27.7517 36 134 141 0.721
108.2815 7.7845 45.4283 31 146 140 0.657
94.5883 0.8714 31.9169 37 130 142 0.276
73.9647 11.7919 30.9852 30 155 137 0.905
90.8900 10.6821 54.3810 30 153 138 0.797
77.7796 7.4323 31.5551 32 145 140 0.895
80.7264 2.2063 30.8381 36 133 141 0.768
76.5962 12.6300 25.1998 30 158 136 0.790
70.1300 6.3888 16.8864 32 143 140 0.696
63.4103 1.5853 11.8707 36 132 141 0.912
88.0987 5.4262 17.2313 33 140 141 0.845
94.2368 8.1803 21.6547 31 147 139 0.828
78.8727 11.4433 31.2473 30 155 137 0.908
88.4019 13.4449 47.3032 30 160 135 0.887
71.7540 5.7361 14.1959 33 141 140 0.595
76.7143 4.4964 40.3622 34 138 141 0.817
77.0332 1.3161 31.0162 37 131 141 0.720
72.1074 1.7306 25.9525 36 132 141 0.790
76.6425 10.0584 26.3157 30 152 138 0.800
66.6793 1.1922 17.8842 37 131 141 0.681
78.7159 12.3260 18.6811 30 157 136 0.899
70.1274 5.6924 14.0905 33 141 140 0.693
72.0788 5.1705 13.4854 33 140 141 0.669
81.0333 5.2273 15.0417 33 140 141 0.859
66.2887 1.4654 11.6262 37 131 141 0.868
128.3821 11.2249 28.4067 30 154 137 0.739
85.1756 3.6662 47.0006 35 137 141 0.685
82.5644 13.2677 42.5282 30 159 136 0.817
78.7122 4.0165 32.0849 34 137 141 0.726
73.2800 3.9858 26.7771 34 137 141 0.879
72.5708 1.2201 24.2627 37 131 141 0.666
67.2737 3.2826 13.7989 35 136 141 0.761
83.1853 12.8740 19.9436 30 158 136 0.834
72.6062 1.9060 13.6426 36 132 141 0.778
92.4950 18.7422 18.4960 38 172 129 0.780
79.8899 3.9623 14.6452 34 137 141 0.411
68.6713 1.3922 11.6443 37 131 141 0.904
76.3548 3.0588 12.8924 35 135 141 0.797
76.0494 4.2926 31.5982 34 137 141 0.606
71.5952 2.2247 13.9876 36 133 141 0.520
66.3101 0.9487 16.1852 37 130 142 0.542
68.6422 6.1098 18.7978 33 142 140 0.678
71.3217 6.4205 17.7794 32 143 140 0.753
89.5524 10.8259 29.1157 30 153 138 0.385
93.9094 3.5043 25.3363 35 137 141 0.284
72.4665 1.8404 27.6392 36 132 141 0.619
81.7531 6.6494 30.1415 32 143 140 0.898
71.8323 6.1497 23.3436 33 142 140 0.839
78.1346 8.5896 27.5284 31 148 139 0.687
77.9792 12.1548 26.1961 30 156 137 0.732
78.1451 10.9134 26.2457 30 153 138 0.833
72.9748 2.5551 22.1132 36 134 141 0.690
91.2321 12.7457 19.4945 30 158 136 0.936
93.1198 9.3632 17.2603 31 150 139 0.896
90.1157 8.6515 15.8731 31 149 139 0.792
83.2340 12.6187 14.8272 30 158 136 0.790
68.1588 1.6427 11.7673 36 132 141 0.801
68.1042 2.4131 11.8299 36 134 141 0.865
100.1779 10.8026 21.4339 30 153 138 0.665
144.8010 40.6042 22.5659 144 214 67 0.797
87.0301 8.9922 13.7901 31 149 139 0.835
93.3855 3.3229 13.8386 35 136 141 0.901
70.7300 2.5080 12.9783 36 134 141 0.726
111.0142 34.1200 59.6350 105 204 91 0.689
82.0880 10.6878 27.0836 30 153 138 0.924
67.0767 1.1936 11.6217 37 131 141 0.815
91.8927 2.9340 28.5280 35 135 141 0.678
80.6199 1.4852 22.0599 37 131 141 0.735
71.7280 4.5914 29.5192 34 138 141 0.870
85.0336 6.0552 41.3153 33 142 140 0.859
73.4414 9.2920 28.0921 31 150 139 0.891
81.8539 16.3133 29.6517 33 167 132 0.849
84.1997 4.0554 33.2684 34 137 141 0.796
71.2456 7.9804 20.7214 31 147 139 0.680
70.1814 1.1903 19.1208 37 131 141 0.513
85.6655 12.2352 18.8230 30 157 136 0.895
88.0965 7.4291 14.1051 32 145 140 0.714
85.3394 9.8717 13.0097 30 152 138 0.785
79.8741 2.6087 13.5383 36 134 141 0.588
112.1189 13.4692 26.4468 30 160 135 0.819
61.2018 3.6450 13.5224 35 137 141 0.489
72.2018 2.3319 27.9095 36 134 141 0.794
73.1967 9.7078 28.6084 30 151 138 0.896
69.5412 9.4123 26.3056 31 150 139 0.839
78.4253 2.8396 27.0428 35 135 141 0.834
73.3927 9.1310 19.3174 31 150 139 0.694
122.0102 18.8460 35.9709 38 172 129 0.840
74.7328 1.3393 15.8993 37 131 141 0.502
61.7883 1.3616 13.3880 37 131 141 0.661
79.3294 3.4184 13.6439 35 136 141 0.609
72.7558 1.4366 11.9238 37 131 141 0.773
74.2893 6.5820 16.1468 32 143 140 0.334
69.7055 1.1345 26.2758 37 131 141 0.807
78.8717 7.4785 34.6188 31 146 140 0.794
73.3844 2.0005 29.5215 36 133 141 0.854
72.9118 8.6003 28.9507 31 148 139 0.859
78.9545 15.6777 30.9049 32 165 133 0.908
77.2434 11.8864 28.6948 30 156 137 0.787
70.6425 3.2548 22.0184 35 136 141 0.669
76.6839 7.1714 22.8945 32 145 140 0.857
77.3298 13.4549 26.1061 30 160 135 0.851
85.4878 13.6746 25.0053 30 160 135 0.795
95.1877 13.3792 28.0185 30 159 136 0.698
85.9523 6.5797 15.5741 32 143 140 0.487
127.1699 12.9081 28.6689 30 158 136 0.714
101.9117 12.5863 21.4807 30 157 136 0.893
75.1454 2.0160 12.5363 36 133 141 0.847
84.8782 13.4436 13.3925 30 160 135 0.904
87.5729 5.8892 13.5006 33 142 140 0.877
94.4204 9.2973 14.0160 31 150 139 0.790
81.1656 1.9213 12.2914 36 133 141 0.673
81.2118 2.9468 12.2823 35 135 141 0.907
92.8549 12.7061 12.4861 30 158 136 0.912
90.2093 11.1850 25.4912 30 154 137 0.850
136.1692 17.0963 30.2063 35 168 131 0.730
95.8315 15.2843 13.5399 32 164 133 0.922
78.3818 6.8439 35.5108 32 144 140 0.808
64.3725 1.1994 21.0484 37 131 141 0.825
73.3435 3.1876 28.9850 35 136 141 0.787
72.0970 1.4201 27.7742 37 131 141 0.853
71.9533 1.8583 27.2245 36 132 141 0.857
74.0871 2.2974 28.6633 36 133 141 0.852
72.6041 1.4392 27.3345 37 131 141 0.854
83.3295 5.5787 36.4369 33 141 140 0.862
71.4220 1.1797 25.7866 37 131 141 0.849
74.5845 12.3298 28.5899 30 157 136 0.875
64.8742 1.2261 20.3261 37 131 141 0.860
72.4137 1.6081 26.2167 36 132 141 0.764
73.3539 8.9208 26.7805 31 149 139 0.859
76.9714 11.0701 29.2044 30 154 137 0.917
72.4767 1.9713 25.4946 36 133 141 0.746
70.7686 11.0298 23.7149 30 154 137 0.865
83.6174 9.0152 30.6963 31 149 139 0.813
77.7728 7.9210 24.5946 31 147 139 0.919
74.6680 3.8323 21.5233 35 137 141 0.471
84.0406 14.1496 23.6786 31 161 135 0.932
75.1296 2.6851 21.6464 36 134 141 0.552
86.7623 6.8314 16.5947 32 144 140 0.890
107.4883 11.5821 20.6578 30 155 137 0.841
89.1880 14.3733 12.4916 31 162 134 0.917
123.6321 23.3196 23.5205 53 183 120 0.617
84.5279 13.2364 12.1592 30 159 136 0.896
88.5134 12.3043 12.4556 30 157 136 0.856
81.7406 5.3223 11.5461 33 140 141 0.933
83.4764 2.4490 11.9333 36 134 141 0.748
69.4387 1.3654 10.7477 37 131 141 0.774
90.6558 11.7628 12.6859 30 155 137 0.837
93.8677 18.3702 12.8452 37 171 129 0.886
84.5584 15.0876 12.2902 32 164 133 0.898
110.0412 21.7718 13.0505 47 179 123 0.806
85.4769 12.1575 11.3852 30 156 137 0.864
76.4311 9.2479 20.4116 31 150 139 0.779
72.0493 1.2833 28.9326 37 131 141 0.811
75.8182 11.6582 28.4166 30 155 137 0.850
79.7618 1.5121 31.1801 37 131 141 0.875
71.9883 2.2112 24.4896 36 133 141 0.802
67.0639 1.1072 20.8053 37 130 142 0.882
65.4862 1.5533 19.3428 36 132 141 0.805
89.3973 8.6315 33.1209 31 148 139 0.905
77.3124 10.1630 25.3202 30 152 138 0.597
74.9287 5.9670 22.6189 33 142 140 0.582
73.2247 7.9084 25.0992 31 147 139 0.740
76.1308 2.1805 24.5428 36 133 141 0.626
80.0874 7.2025 24.0817 32 145 140 0.635
100.2629 19.2774 26.2252 39 173 128 0.779
83.7833 3.8965 12.1353 35 137 141 0.659
85.9616 16.2695 12.4525 33 167 132 0.941
97.8236 8.3740 12.8284 31 148 139 0.910
80.2431 12.2482 11.6425 30 157 136 0.888
88.1975 5.6502 11.5034 33 141 140 0.669
85.7154 14.9316 10.7833 31 163 134 0.802
73.1914 3.0428 15.9549 35 135 141 0.670
124.0002 9.9944 44.7257 30 152 138 0.335
67.8873 1.2784 23.8463 37 131 141 0.814
90.0498 11.2565 42.3625 30 154 137 0.868
74.7091 3.8871 28.9671 35 137 141 0.775
73.1469 1.4627 26.0922 37 131 141 0.756
75.7343 10.4989 27.7826 30 153 138 0.840
79.0872 5.7261 30.0113 33 141 140 0.889
77.8227 11.8527 27.4862 30 156 137 0.833
75.3204 1.5682 23.3801 36 132 141 0.840
87.1773 13.5870 30.2404 30 160 135 0.849
76.2953 0.9883 23.2823 37 130 142 0.579
73.3537 2.6525 21.1903 36 134 141 0.759
72.6487 1.0696 20.3910 37 130 142 0.531
76.6211 11.9440 22.7385 30 156 137 0.815
80.7048 1.6823 26.7858 36 132 141 0.825
71.7689 0.4322 21.5244 38 129 142 0.651
74.8913 9.9041 19.6493 30 152 138 0.731
89.0543 12.7372 24.6657 30 158 136 0.908
81.5491 9.2731 24.9731 31 150 139 0.780
89.4400 11.4672 11.3447 30 155 137 0.854
85.8075 3.3157 11.3045 35 136 141 0.577
88.4731 16.1952 11.7983 33 167 132 0.849
78.9613 4.7472 22.7381 34 139 141 0.251
106.4758 12.2824 23.3294 30 157 136 0.613
88.9585 4.8191 16.1982 34 139 141 0.378
84.1175 12.2084 11.5762 30 156 137 0.940
98.3327 12.3953 10.5198 30 157 136 0.818
78.0102 7.7007 32.4159 31 146 140 0.777
92.4757 5.6212 34.0196 33 141 140 0.696
73.3362 0.9986 20.8537 37 130 142 0.803
80.9836 12.4921 24.8922 30 157 136 0.694
78.0056 1.8878 22.8263 36 132 141 0.558
83.8703 7.2140 25.7824 32 145 140 0.842
71.8270 0.8729 19.4445 37 130 142 0.623
76.5776 10.7223 21.6348 30 153 138 0.794
81.3951 11.7452 22.9956 30 155 137 0.619
89.4378 12.8213 26.5924 30 158 136 0.851
88.2608 6.4909 11.0196 32 143 140 0.912
84.8525 6.5765 10.1719 32 143 140 0.932
80.8971 5.5812 10.0017 33 141 140 0.886
84.4270 12.5412 9.9630 30 157 136 0.789
77.6243 3.6849 19.3664 35 137 141 0.727
74.9826 3.2240 24.3108 35 136 141 0.770
92.5738 17.0296 35.8759 35 168 131 0.900
74.6696 7.1914 25.3071 32 145 140 0.858
76.4368 1.9639 21.0298 36 133 141 0.762
76.6432 0.6131 19.7767 38 129 142 0.654
74.0648 6.8165 17.9762 32 144 140 0.290
87.2233 1.3495 24.8900 37 131 141 0.710
91.2174 12.1590 20.0501 30 156 137 0.920
77.4725 2.3887 29.8308 36 134 141 0.549
67.3360 1.1812 18.5969 37 131 141 0.847
88.9738 12.7769 25.4597 30 158 136 0.822
70.5036 1.1373 14.7797 37 131 141 0.427
80.0154 4.2966 13.0950 34 138 141 0.784
100.8048 9.9103 11.4168 30 152 138 0.916
80.6639 3.1691 9.6092 35 136 141 0.926
91.5450 16.6051 9.9607 34 167 132 0.878
97.8085 13.6283 9.7865 30 160 135 0.907
81.9046 11.6734 9.5699 30 155 137 0.819
84.6443 -0.5063 24.5714 39 126 142 0.668
71.1462 6.3955 18.6613 32 143 140 0.606
75.1543 0.1880 21.8455 38 128 142 0.750
93.9550 0.4139 23.0153 38 129 142 0.682
75.2295 4.1993 16.5102 34 137 141 0.568
84.2728 3.1276 33.2821 35 136 141 0.842
74.4122 1.4107 21.4827 37 131 141 0.804
76.3070 3.0372 25.7222 35 135 141 0.673
115.9492 3.8975 51.9735 35 137 141 0.373
68.9267 1.3057 12.8755 37 131 141 0.704
77.9316 1.7847 14.7461 36 132 141 0.813
69.5556 1.5212 12.7057 37 131 141 0.677
69.8361 0.9679 13.7793 37 130 142 0.622
87.7178 13.4750 14.1907 30 160 135 0.736
82.3971 14.4172 10.9415 31 162 134 0.908
90.5208 17.5846 9.6946 35 169 130 0.860
78.2938 4.9366 29.0544 34 139 141 0.884
93.8927 7.2061 16.7497 32 145 140 0.740
64.9947 1.4073 13.6344 37 131 141 0.712
111.5211 15.8516 15.6879 33 166 133 0.675
89.4384 8.6977 12.4299 31 149 139 0.937
134.4954 0.8938 41.5571 37 130 142 0.569
101.3988 2.2861 21.3088 36 133 141 0.470
68.0052 1.4153 11.8369 37 131 141 0.887
75.2880 1.9094 13.9381 36 132 141 0.284
80.6004 3.7235 11.8454 35 137 141 0.811
78.5053 2.4590 11.7121 36 134 141 0.906
71.2562 0.8612 12.6859 37 130 142 0.753
117.8727 29.5695 14.9928 79 195 105 0.674
97.5465 10.1267 11.6966 30 152 138 0.935
74.3723 1.4290 10.1180 37 131 141 0.862
88.9663 2.3393 10.3135 36 134 141 0.771
74.2025 0.3956 18.0310 38 129 142 0.681
79.0237 13.9847 23.9836 31 161 135 0.900
76.3316 10.1819 25.0883 30 152 138 0.845
75.5716 12.0013 21.2366 30 156 137 0.921
77.3025 3.8016 16.1237 35 137 141 0.591
93.8144 2.5573 15.5476 36 134 141 0.838
76.1186 1.8435 12.3805 36 132 141 0.891
66.7367 1.0694 10.8794 37 130 142 0.711
77.7957 4.6735 30.0024 34 138 141 0.704
74.2108 1.4733 26.8197 37 131 141 0.877
81.7703 7.7765 30.2073 31 146 140 0.879
74.9989 11.3781 25.2100 30 154 137 0.866
74.9838 1.4430 23.8491 37 131 141 0.566
77.1198 2.1265 23.4696 36 133 141 0.563
72.0088 6.2701 16.3348 33 142 140 0.796
91.4402 13.2378 22.2465 30 159 136 0.822
74.6798 10.6997 16.6899 30 153 138 0.827
60.9908 2.1843 12.2262 36 133 141 0.404
85.4258 7.9737 17.5709 31 147 139 0.563
81.8624 4.1285 16.2908 34 137 141 0.516
89.4683 8.9210 17.5247 31 149 139 0.926
91.0808 8.3061 17.7920 31 148 139 0.922
75.0190 3.5297 13.2115 35 137 141 0.667
73.0164 3.1127 12.7771 35 136 141 0.458
66.1795 1.6086 10.7025 36 132 141 0.840
79.5354 12.1665 10.7998 30 156 137 0.882
81.0526 1.7140 10.1733 36 132 141 0.922
73.2195 1.6026 9.6801 36 132 141 0.875
80.5250 6.0752 17.0768 33 142 140 0.812
75.7895 10.7160 24.2297 30 153 138 0.543
75.0240 2.1545 14.7709 36 133 141 0.620
83.6845 10.5973 10.1748 30 153 138 0.853
96.5108 13.2448 27.2956 30 159 136 0.688
87.7738 1.2141 22.6360 37 131 141 0.637
92.9055 0.0846 12.1157 38 128 142 0.780
76.9317 4.1734 24.0235 34 137 141 0.543
95.9858 0.7805 24.1856 37 130 142 0.729
72.9437 11.8528 25.3211 30 156 137 0.921
85.1769 8.8323 30.2096 31 149 139 0.854
78.2903 1.7227 25.5867 36 132 141 0.812
74.5955 1.1060 22.6770 37 130 142 0.817
103.7388 4.2119 40.2045 34 137 141 0.659
74.5352 3.7955 21.9712 35 137 141 0.424
72.2704 3.9444 20.6679 34 137 141 0.415
66.4904 6.0352 15.9393 33 142 140 0.777
76.9913 8.6068 20.1595 31 148 139 0.551
88.4369 6.5136 18.6170 32 143 140 0.918
72.7354 1.4332 14.2309 37 131 141 0.790
71.4477 1.5158 13.4009 37 131 141 0.844
91.1376 8.7504 16.1105 31 149 139 0.811
80.8431 1.9090 12.2678 36 132 141 0.894
83.3093 3.7156 12.1106 35 137 141 0.852
74.4641 1.5134 11.1224 37 131 141 0.786
86.6549 5.6105 11.3866 33 141 140 0.908
96.3765 0.9668 25.5536 37 130 142 0.255
71.2370 7.5427 24.5432 31 146 140 0.791
72.3975 2.8382 24.7144 35 135 141 0.699
66.4287 1.2251 19.1369 37 131 141 0.856
83.4665 12.6993 24.2061 30 158 136 0.923
72.4457 7.3622 16.3311 32 145 140 0.555
75.8065 8.7252 17.1210 31 149 139 0.722
67.3226 4.5961 14.3407 34 138 141 0.654
74.4131 6.4079 16.3629 32 143 140 0.699
73.7098 10.1042 15.9619 30 152 138 0.763
74.8771 3.7592 15.9652 35 137 141 0.672
80.6640 5.1883 16.1004 33 140 141 0.773
74.1314 3.0892 13.9830 35 135 141 0.419
86.5855 4.2091 18.0716 34 137 141 0.721
95.9485 10.3665 10.4739 30 153 138 0.800
75.8062 1.3228 11.8865 37 131 141 0.840
83.2016 13.2952 20.5108 30 159 136 0.914
82.0095 15.6409 29.4785 32 165 133 0.928
71.5763 9.8848 21.8851 30 152 138 0.803
73.6305 8.9765 22.8735 31 149 139 0.755
72.4919 10.1562 20.7980 30 152 138 0.803
92.5508 7.3175 16.8154 32 145 140 0.380
86.2770 10.8636 11.9254 30 153 138 0.940
79.7747 4.6827 11.2782 34 138 141 0.900
79.3443 3.1275 10.9802 35 136 141 0.610
81.3656 15.0784 10.2278 32 164 133 0.878
81.4693 12.8543 9.9163 30 158 136 0.849
82.6737 1.0912 12.4762 37 130 142 0.874
62.1600 3.7021 13.1874 35 137 141 0.871
74.9655 10.0842 27.1208 30 152 138 0.806
80.9883 13.1658 31.6090 30 159 136 0.908
75.0286 9.2358 26.3248 31 150 139 0.772
67.7774 6.2340 18.4043 33 142 140 0.724
61.8164 4.1776 13.3320 34 137 141 0.894
69.8988 7.4499 12.3546 32 145 140 0.807
68.9633 1.4117 10.7790 37 131 141 0.758
84.6774 1.1084 10.6310 37 130 142 0.522
95.2697 11.4884 10.4999 30 155 137 0.856
77.4202 10.7054 12.1839 30 153 138 0.737
99.5305 10.8406 32.2468 30 153 138 0.793
85.1248 14.0479 23.1727 31 161 135 0.924
86.1643 3.4463 14.2786 35 136 141 0.765
94.5442 1.5059 31.3436 37 131 141 0.722
140.8512 12.0354 52.9459 30 156 137 0.558
61.5406 2.4634 12.5984 36 134 141 0.328
73.2877 2.0619 25.3791 36 133 141 0.836
85.2895 16.7709 32.5486 34 167 132 0.895
97.9185 16.2135 29.4849 33 167 132 0.609
73.0654 1.4834 12.2062 37 131 141 0.859
79.8510 4.3842 13.1330 34 138 141 0.858
89.7777 9.3284 14.3153 31 150 139 0.894
84.0927 4.3398 12.9139 34 138 141 0.683
83.3119 2.4492 10.3139 36 134 141 0.777
87.1309 4.0393 9.1716 34 137 141 0.929
80.1021 7.3016 29.9000 32 145 140 0.884
91.6867 3.3522 27.7184 35 136 141 0.298
87.6717 3.1897 24.9991 35 136 141 0.788
84.2859 0.7512 22.3882 37 130 142 0.615
80.9225 11.5233 26.7509 30 155 137 0.931
76.6780 2.3078 28.4661 36 133 141 0.846
88.8676 16.0450 32.9818 33 166 133 0.935
86.7572 5.1348 30.6284 33 140 141 0.762
75.5574 5.8726 22.9385 33 141 140 0.665
74.9577 2.1559 22.2513 36 133 141 0.631
68.6828 1.1360 18.0528 37 131 141 0.743
70.9042 0.9382 18.8568 37 130 142 0.726
76.7319 8.5723 20.3810 31 148 139 0.845
103.8654 15.2758 21.7904 32 164 133 0.621
83.4806 4.7089 14.2306 34 139 141 0.855
75.4186 3.2714 12.2415 35 136 141 0.717
82.4813 3.7527 12.0438 35 137 141 0.817
90.9377 6.9082 16.0367 32 144 140 0.620
87.5850 0.0109 23.1929 38 128 142 0.619
92.0089 8.3389 12.0117 31 148 139 0.838
82.6669 12.9026 11.2025 30 158 136 0.933
85.7999 14.8935 10.7002 31 163 134 0.846
71.9635 1.2000 15.6612 37 131 141 0.642
90.2201 7.5598 9.5387 31 146 140 0.872
86.7081 11.9258 19.7240 30 156 137 0.864
80.2417 10.5082 11.1434 30 153 138 0.827
81.3942 2.8132 24.8780 35 135 141 0.632
85.7050 4.4685 29.1970 34 138 141 0.682
85.2344 14.8486 32.8321 31 163 134 0.916
67.7543 1.0092 17.9092 37 130 142 0.721
105.5243 13.1185 35.1972 30 159 136 0.595
82.6844 8.2360 32.2826 31 147 139 0.586
81.9015 4.2172 28.5684 34 137 141 0.903
82.5340 5.7962 28.6129 33 141 140 0.901
