ply
format ascii 1.0
element vertex 1043
property float x
property float y
property float z
property uchar red
property uchar green
property uchar blue
property float confidence
end_header
-477.8733 -16.2244 -115.1772 34 167 132 0.874
-479.8967 -15.4766 -114.4501 35 168 131 0.869
-476.7924 -16.9490 -117.6606 33 166 133 0.716
-478.7828 -14.7932 -114.9666 35 169 130 0.829
-484.2239 -16.7811 -117.4391 33 167 132 0.532
-514.9619 -5.1849 -116.4645 56 185 118 0.820
-480.8171 -14.7883 -115.1679 35 169 130 0.858
-487.7193 -15.5258 -118.7365 35 168 131 0.542
-496.0718 -12.8560 -115.8585 39 173 128 0.803
-502.9642 -6.8538 -115.4203 51 182 121 0.514
-508.1060 -14.1303 -114.4813 36 170 130 0.933
-486.5799 -15.3093 -115.4497 35 168 131 0.292
-481.2651 -14.5239 -115.0965 36 170 130 0.761
-491.8575 -16.0501 -113.9072 34 167 132 0.895
-482.7712 -15.3306 -114.9174 35 168 131 0.821
-484.6832 -12.7565 -114.2965 39 173 128 0.912
-481.2430 -13.8560 -114.6928 37 171 129 0.868
-479.9733 -15.2532 -114.8166 35 168 131 0.871
-480.4715 -15.2575 -114.5643 35 168 131 0.872
-479.1767 -13.5147 -114.5918 37 171 129 0.933
-477.7452 -17.0344 -115.0277 33 166 133 0.928
-478.5804 -15.5998 -114.6767 35 168 131 0.907
-479.4797 -14.9183 -114.0739 35 169 130 0.918
-527.0638 -37.4960 -137.4948 36 132 141 0.896
-513.2838 -7.1826 -120.8375 51 182 121 0.756
-477.7324 -16.1354 -115.2049 34 167 132 0.763
-478.0162 -16.4674 -114.5221 33 167 132 0.928
-478.4882 -16.2573 -114.5405 34 167 132 0.942
-522.2574 -13.0869 -125.6733 38 172 129 0.318
-478.4138 -16.0160 -115.1641 34 167 132 0.867
-478.1031 -16.8218 -114.7379 33 167 132 0.919
-480.0150 -16.9429 -117.7156 33 166 133 0.517
-489.8713 -17.5159 -118.5802 32 165 133 0.316
-486.2122 -12.3621 -118.8293 39 173 128 0.724
-517.5411 -4.2297 -116.5373 59 186 117 0.675
-481.2397 -16.4008 -115.1313 33 167 132 0.799
-486.5388 -14.0794 -114.1518 36 170 130 0.842
-512.9436 -20.0956 -110.0773 31 161 135 0.805
-572.3709 -14.3105 -110.2195 36 170 130 0.631
-478.3919 -16.1301 -115.2952 34 167 132 0.912
-483.4322 -15.3472 -113.5308 35 168 131 0.895
-479.3795 -15.2274 -114.3737 35 168 131 0.860
-565.0061 -48.8306 -152.8779 44 114 142 0.863
-508.1267 -14.6812 -115.9666 35 169 130 0.551
-496.4954 -13.4011 -120.0886 38 172 129 0.479
-490.1973 -12.0262 -118.0948 40 174 127 0.912
-518.8726 -8.4584 -116.4069 47 179 123 0.917
-562.9798 -8.9069 -114.3610 46 178 124 0.421
-474.5890 -17.0252 -117.3465 33 166 133 0.927
-488.0523 -12.2095 -118.9346 40 174 127 0.836
-485.9780 -12.0730 -117.8170 40 174 127 0.867
-502.5127 -10.9050 -115.8799 42 176 126 0.251
-509.2708 -7.3536 -114.8615 50 181 122 0.860
-493.0114 -13.9291 -115.0161 37 171 129 0.761
-491.3334 -14.6942 -115.0342 35 169 130 0.879
-481.4051 -12.3799 -115.2573 39 173 128 0.882
-482.4299 -14.0139 -114.9340 37 171 129 0.891
-529.7234 -20.3808 -106.4041 30 160 135 0.898
-481.2214 -12.6059 -114.4160 39 173 128 0.891
-478.5461 -16.7155 -115.1509 33 167 132 0.923
-481.4203 -13.8628 -114.2515 37 171 129 0.852
-482.2381 -15.7547 -113.7027 34 167 132 0.884
-479.8107 -16.2007 -114.9290 34 167 132 0.878
-538.8955 -14.9728 -95.6436 35 169 130 0.743
-530.6904 -12.3959 -114.2559 39 173 128 0.809
-505.8902 -10.5826 -118.6150 43 177 125 0.934
-487.6927 -14.1547 -118.7835 36 170 130 0.884
-484.2628 -12.2480 -114.3915 40 174 127 0.925
-505.1430 -9.6166 -119.4796 44 177 125 0.667
-491.4009 -15.8810 -123.5293 34 167 132 0.656
-509.2409 -7.4156 -118.2531 50 181 122 0.936
-491.4691 -12.2559 -119.1822 40 174 127 0.896
-485.0071 -13.3347 -115.4913 38 172 129 0.919
-483.0760 -12.3506 -115.4104 39 173 128 0.901
-516.6659 -10.9288 -116.5337 42 176 126 0.903
-483.2993 -16.5399 -118.4637 33 167 132 0.611
-495.5298 -14.4000 -120.9283 36 170 130 0.779
-494.9253 -17.6520 -122.4568 32 165 133 0.735
-521.7814 -3.3590 -115.3209 61 187 116 0.795
-491.7956 -15.7206 -114.8731 35 168 131 0.926
-484.9267 -12.9593 -115.2390 38 172 129 0.928
-484.7645 -13.9847 -114.7444 37 171 129 0.885
-483.2458 -15.4640 -114.7751 35 168 131 0.848
-482.9853 -13.2076 -113.7617 38 172 129 0.918
-490.6663 -13.2293 -119.4285 38 172 129 0.931
-486.4972 -15.5682 -119.1529 35 168 131 0.702
-518.6673 -7.2453 -115.2067 50 181 122 0.911
-484.2990 -11.8902 -114.7520 40 174 127 0.905
-483.9876 -12.0768 -114.5587 40 174 127 0.929
-482.8719 -12.8551 -114.6283 39 173 128 0.854
-486.0981 -13.7117 -114.3099 37 171 129 0.925
-483.2224 -16.1282 -114.7018 34 167 132 0.771
-484.8302 -14.0254 -114.2546 37 171 129 0.917
-483.8497 -14.7745 -113.7548 35 169 130 0.785
-479.9105 -16.2600 -114.6837 34 167 132 0.920
-480.3494 -16.4586 -114.3927 33 167 132 0.905
-482.6237 -16.0811 -118.1144 34 167 132 0.679
-484.8606 -12.1543 -113.3541 40 174 127 0.864
-505.7006 -9.2856 -114.8585 46 178 124 0.567
-484.6219 -13.1380 -114.6632 38 172 129 0.915
-493.0278 -13.7605 -115.2375 37 171 129 0.937
-484.2020 -14.3242 -113.8770 36 170 130 0.897
-523.9986 -5.8108 -121.0161 54 184 119 0.828
-484.1691 -12.0591 -115.3942 40 174 127 0.921
-489.3578 -12.9177 -118.5501 38 172 129 0.905
-490.0583 -15.4922 -115.3599 35 168 131 0.791
-493.3225 -13.6928 -114.7993 37 171 129 0.941
-492.3625 -13.4774 -113.9211 37 171 129 0.897
-484.7987 -13.5611 -114.4569 37 171 129 0.914
-480.3178 -15.9278 -114.8580 34 167 132 0.914
-484.7170 -15.8808 -114.1214 34 167 132 0.783
-489.0882 -15.3819 -114.9227 35 168 131 0.926
-485.1270 -14.4629 -114.0334 36 170 130 0.913
-486.3677 -13.3795 -115.3388 38 172 129 0.879
-503.3272 -9.1278 -122.7036 46 178 124 0.895
-501.2568 -10.0345 -120.1000 44 177 125 0.577
-515.5663 -12.0678 -117.0226 40 174 127 0.734
-488.2650 -13.3800 -114.7700 38 172 129 0.700
-488.8655 -14.2334 -114.4909 36 170 130 0.824
-490.5380 -15.1501 -114.0861 35 169 130 0.925
-485.8475 -14.1325 -114.5142 36 170 130 0.756
-484.7086 -13.6970 -114.2476 37 171 129 0.894
-491.3463 -16.0253 -114.4235 34 167 132 0.893
-483.0078 -16.2914 -114.3363 34 167 132 0.818
-483.5324 -15.7609 -113.9852 34 167 132 0.823
-485.9889 -13.5950 -113.7541 37 171 129 0.918
-556.5964 -6.1244 -119.0084 53 183 120 0.730
-490.5317 -16.0996 -114.6214 34 167 132 0.849
-488.8967 -16.2637 -114.2644 34 167 132 0.908
-501.1357 -11.4235 -118.8904 41 175 127 0.852
-484.2735 -14.3000 -114.6849 36 170 130 0.880
-484.0718 -14.9588 -113.8878 35 169 130 0.893
-536.7343 -41.1023 -140.2854 39 126 142 0.828
-484.4879 -17.4393 -119.3441 33 166 133 0.794
-504.2155 -7.7096 -123.7090 50 181 122 0.678
-490.9274 -12.7290 -114.5073 39 173 128 0.724
-484.8210 -11.5226 -115.0043 41 175 127 0.881
-485.8820 -13.4368 -114.8036 38 172 129 0.903
-486.9742 -14.9032 -114.4390 35 169 130 0.885
-486.1227 -15.4355 -114.4858 35 168 131 0.744
-484.6170 -16.2361 -114.5414 34 167 132 0.765
-478.6527 -16.9997 -117.6327 33 166 133 0.615
-486.0103 -13.3583 -114.0011 38 172 129 0.917
-508.5561 -17.5840 -128.8146 32 165 133 0.691
-480.3600 -17.2469 -118.1117 33 166 133 0.924
-506.3404 -9.8744 -120.0598 44 177 125 0.816
-534.6025 -5.7631 -117.4351 54 184 119 0.849
-519.3422 -11.5598 -115.3550 41 175 127 0.891
-494.3269 -12.0516 -114.6936 40 174 127 0.890
-490.1721 -16.7108 -114.7640 33 167 132 0.813
-493.8136 -14.8078 -115.8055 35 169 130 0.781
-486.6323 -12.6349 -114.8598 39 173 128 0.930
-486.6470 -13.5082 -114.7815 37 171 129 0.919
-484.0633 -16.3008 -114.6031 34 167 132 0.815
-486.1459 -16.1672 -113.9023 34 167 132 0.793
-499.7135 -11.7015 -121.8881 41 175 127 0.849
-502.4667 -12.9243 -122.8523 38 172 129 0.906
-486.2598 -15.1497 -113.8613 35 169 130 0.900
-492.4969 -12.5631 -120.8911 39 173 128 0.819
-513.6285 -8.0816 -125.9731 48 180 122 0.838
-484.7160 -16.7587 -118.4446 33 167 132 0.590
-499.7738 -11.2484 -119.2656 41 175 127 0.845
-484.3896 -17.4570 -117.6887 33 166 133 0.521
-517.2413 -6.1639 -115.4414 53 183 120 0.904
-505.6086 -8.0923 -117.5810 48 180 122 0.940
-495.3924 -12.7570 -115.2799 39 173 128 0.868
-496.6652 -12.0913 -114.8536 40 174 127 0.925
-505.1404 -9.0757 -115.6488 46 178 124 0.933
-486.0966 -12.7110 -114.0725 39 173 128 0.929
-483.5682 -16.4194 -118.4958 33 167 132 0.735
-508.9224 -13.1909 -124.3920 38 172 129 0.887
-501.7388 -11.4546 -122.4413 41 175 127 0.874
-481.9325 -16.7534 -118.0893 33 167 132 0.834
-522.0887 -12.2427 -122.9642 40 174 127 0.518
-550.4360 -10.8952 -110.8272 42 176 126 0.721
-497.1650 -16.5304 -114.3211 33 167 132 0.924
-521.4163 -6.4897 -128.6619 53 183 120 0.919
-504.3483 -14.0856 -124.1099 36 170 130 0.823
-505.1443 -13.1403 -124.0015 38 172 129 0.913
-503.4582 -8.5571 -123.0459 47 179 123 0.926
-500.9396 -13.3258 -122.3620 38 172 129 0.796
-487.8775 -16.0777 -118.9206 34 167 132 0.737
-495.8475 -12.9515 -115.2029 38 172 129 0.883
-498.3897 -13.9354 -114.5697 37 171 129 0.842
-495.3562 -11.4270 -114.6364 41 175 127 0.863
-501.3594 -9.3997 -113.9150 46 178 124 0.863
-493.8306 -14.5806 -114.8918 36 170 130 0.858
-495.3011 -15.0482 -114.1911 35 169 130 0.827
-492.4355 -16.1988 -114.5914 34 167 132 0.818
-488.4310 -12.7638 -114.8088 39 173 128 0.920
-493.5660 -14.3093 -113.6509 36 170 130 0.915
-492.1965 -12.1705 -114.8406 40 174 127 0.904
-500.4571 -11.3619 -115.3719 41 175 127 0.894
-486.3502 -15.6521 -113.7934 35 168 131 0.898
-492.9760 -16.0672 -119.8039 34 167 132 0.645
-501.8022 -14.6716 -120.8697 35 169 130 0.593
-519.7251 -9.9167 -116.9631 44 177 125 0.603
-520.3299 -8.9259 -116.4461 46 178 124 0.788
-488.2852 -16.0120 -114.2614 34 167 132 0.871
-505.3676 -7.1710 -124.5880 51 182 121 0.939
-521.2238 -1.8324 -117.8889 66 190 113 0.778
-505.2830 -12.9794 -117.2513 38 172 129 0.875
-490.2973 -15.8790 -115.9685 34 167 132 0.800
-491.5293 -13.0966 -114.1673 38 172 129 0.938
-492.0979 -15.5274 -114.6901 35 168 131 0.832
-508.3116 -12.5352 -126.4005 39 173 128 0.932
-507.6982 -12.6207 -125.5616 39 173 128 0.922
-497.5444 -13.1009 -119.1568 38 172 129 0.687
-488.1407 -15.7703 -119.3269 34 167 132 0.657
-525.8088 -3.6475 -113.9342 61 187 116 0.877
-491.7294 -14.3280 -114.4663 36 170 130 0.888
-491.0129 -14.8268 -114.6135 35 169 130 0.841
-491.5774 -14.2609 -114.2399 36 170 130 0.903
-489.8983 -16.0523 -114.3189 34 167 132 0.940
-491.4751 -14.7315 -113.9346 35 169 130 0.942
-489.6052 -15.7535 -114.3080 34 167 132 0.941
-487.7406 -16.1366 -114.3903 34 167 132 0.900
-486.4941 -14.8613 -114.4087 35 169 130 0.897
-486.6327 -13.7452 -115.1787 37 171 129 0.899
-487.3571 -15.9718 -113.2665 34 167 132 0.911
-515.5308 -10.1543 -129.5539 43 177 125 0.929
-509.3198 -7.0652 -124.7152 51 182 121 0.880
-508.6585 -17.5013 -114.9429 32 165 133 0.541
-495.3916 -14.5425 -115.3224 36 170 130 0.880
-508.0544 -12.5429 -115.3344 39 173 128 0.648
-494.1748 -12.0513 -114.3071 40 174 127 0.873
-486.7020 -12.7803 -114.7609 39 173 128 0.876
-492.2043 -13.9108 -113.7615 37 171 129 0.877
-487.2870 -12.9454 -114.5499 38 172 129 0.861
-503.5088 -9.7461 -113.8205 44 177 125 0.849
-486.5838 -12.7106 -114.6659 39 173 128 0.929
-488.7910 -13.7874 -114.3195 37 171 129 0.915
-493.3351 -12.9511 -113.2493 38 172 129 0.885
-487.3123 -13.7991 -114.4373 37 171 129 0.846
-489.3872 -16.1841 -114.1310 34 167 132 0.877
-488.0442 -16.8695 -114.6419 33 167 132 0.855
-488.6780 -13.6848 -114.0989 37 171 129 0.920
-488.6962 -16.3223 -113.9768 34 167 132 0.908
-486.6886 -14.9632 -114.3555 35 169 130 0.906
-494.3198 -12.3522 -113.9769 39 173 128 0.873
-486.4382 -15.9960 -114.1635 34 167 132 0.907
-515.4951 -7.1890 -128.9592 50 181 122 0.917
-506.1667 -7.8473 -125.7513 48 180 122 0.931
-490.7348 -15.9735 -114.9944 34 167 132 0.874
-510.8697 -11.9648 -127.9845 40 174 127 0.937
-484.5248 -15.4164 -118.0659 35 168 131 0.716
-494.3545 -10.4863 -117.7265 43 177 125 0.859
-504.2740 -9.2540 -123.2522 46 178 124 0.783
-508.5309 -9.6832 -124.4157 44 177 125 0.742
-505.5643 -10.5625 -124.5026 43 177 125 0.898
-493.3063 -11.9175 -119.0094 40 174 127 0.854
-517.3071 -7.8061 -116.6778 48 180 122 0.878
-494.0437 -11.7921 -121.5791 40 174 127 0.757
-503.3619 -14.0889 -124.0394 36 170 130 0.597
-495.3896 -14.0019 -118.4752 37 171 129 0.670
-534.7093 -17.3843 -120.0939 33 166 133 0.541
-495.9319 -15.4153 -114.8188 35 168 131 0.916
-494.3239 -12.2699 -113.5917 40 174 127 0.923
-487.7505 -11.7899 -114.4032 40 174 127 0.879
-487.0218 -13.3068 -114.1354 38 172 129 0.924
-491.0054 -16.4047 -118.8236 33 167 132 0.459
-512.3483 -8.7433 -128.3762 47 179 123 0.942
-515.4012 -12.0393 -129.7758 40 174 127 0.927
-504.0007 -12.2546 -123.7853 40 174 127 0.831
-501.3889 -13.7664 -118.2632 37 171 129 0.819
-500.3656 -13.8164 -115.8014 37 171 129 0.899
-513.9016 -14.9600 -111.9286 35 169 130 0.910
-496.4590 -16.2820 -115.1078 34 167 132 0.874
-569.8670 1.0894 -137.8520 75 194 108 0.516
-489.2438 -12.8512 -119.1625 39 173 128 0.756
-489.1834 -13.3513 -118.8920 38 172 129 0.706
-505.3344 -14.5917 -115.7790 36 170 130 0.439
-512.8701 -9.2284 -115.3788 46 178 124 0.849
-510.0574 -7.9431 -126.5095 48 180 122 0.840
-510.2303 -7.4159 -126.3991 50 181 122 0.913
-491.4643 -12.0629 -120.1935 40 174 127 0.869
-489.3975 -14.6375 -113.8933 35 169 130 0.900
-489.2685 -16.5664 -114.0253 33 167 132 0.913
-498.2417 -17.9542 -122.3231 32 165 133 0.796
-493.4963 -12.8569 -119.1405 39 173 128 0.892
-495.8326 -13.7768 -120.5435 37 171 129 0.522
-501.5905 -12.2888 -117.6461 40 174 127 0.891
-493.8794 -15.5736 -115.5715 35 168 131 0.887
-492.4312 -13.0556 -113.9634 38 172 129 0.812
-490.7241 -14.8916 -113.8831 35 169 130 0.934
-492.3316 -13.9125 -113.3598 37 171 129 0.941
-508.5518 -11.7114 -126.5326 41 175 127 0.930
-493.9511 -12.7035 -114.2881 39 173 128 0.914
-493.7475 -15.9238 -115.0866 34 167 132 0.889
-493.9017 -13.2333 -113.0245 38 172 129 0.923
-523.4245 -15.2443 -125.2808 35 168 131 0.544
-492.9914 -12.7405 -113.3172 39 173 128 0.933
-506.7818 -11.3829 -125.5803 41 175 127 0.871
-494.4404 -14.8730 -121.3009 35 169 130 0.785
-489.8829 -12.4120 -119.0748 39 173 128 0.772
-495.6583 -12.3129 -114.3743 40 174 127 0.909
-496.4337 -11.4814 -113.9105 41 175 127 0.920
-495.9931 -15.0156 -115.7327 35 169 130 0.899
-489.9156 -16.0109 -114.7108 34 167 132 0.930
-493.1735 -13.2149 -113.5598 38 172 129 0.902
-514.5563 -14.5544 -114.9700 36 170 130 0.889
-490.4524 -12.8936 -119.7692 39 173 128 0.916
-491.0647 -13.0433 -119.1420 38 172 129 0.891
-491.5331 -12.9086 -118.7674 38 172 129 0.878
-489.4774 -12.5262 -118.0562 39 173 128 0.914
-495.9810 -10.3186 -117.8362 43 177 125 0.874
-510.6502 -11.4363 -115.5682 41 175 127 0.933
-487.4987 -13.3079 -114.6432 38 172 129 0.938
-487.5895 -13.3248 -114.4692 38 172 129 0.939
-488.7403 -13.2252 -119.5072 38 172 129 0.898
-491.4989 -17.3107 -118.0035 33 166 133 0.326
-513.8172 -12.0036 -117.0128 40 174 127 0.915
-550.0594 -26.3720 -113.0184 30 151 138 0.685
-495.7993 -14.2397 -113.5687 36 170 130 0.894
-491.1559 -16.4659 -114.6713 33 167 132 0.895
-491.7545 -14.1676 -113.9593 36 170 130 0.921
-488.8703 -16.3143 -114.5119 34 167 132 0.915
-488.7847 -16.3153 -114.3704 34 167 132 0.911
-487.8728 -13.6202 -114.4006 37 171 129 0.888
-490.4604 -15.1804 -114.6776 35 169 130 0.909
-493.3710 -13.3458 -114.4178 38 172 129 0.941
-513.6542 -12.6558 -113.6509 39 173 128 0.931
-490.5840 -13.5123 -118.9695 37 171 129 0.927
-509.5203 -11.4782 -116.6038 41 175 127 0.880
-513.7249 -12.1389 -115.3802 40 174 127 0.926
-509.1369 -10.1260 -115.1237 43 177 125 0.929
-510.4167 -8.3487 -126.3776 47 179 123 0.935
-501.9071 -8.9450 -123.5139 46 178 124 0.765
-497.2643 -13.0667 -120.9412 38 172 129 0.786
-488.8390 -15.8989 -119.8076 34 167 132 0.616
-505.9262 -12.7196 -120.4816 39 173 128 0.879
-487.8887 -16.4980 -118.9913 33 167 132 0.663
-501.8898 -11.5568 -119.1268 41 175 127 0.935
-509.6984 -8.2710 -115.5519 48 180 122 0.934
-514.7184 -9.0273 -115.4353 46 178 124 0.933
-511.1349 -14.3586 -115.8311 36 170 130 0.902
-514.6945 -6.9869 -114.6719 51 182 121 0.724
-529.4468 -15.0967 -112.0187 35 169 130 0.923
-500.2091 -16.7552 -115.9337 33 167 132 0.560
-492.6397 -16.0497 -114.7968 34 167 132 0.898
-491.5062 -14.5629 -114.8195 36 170 130 0.909
-492.7643 -13.3103 -114.1236 38 172 129 0.883
-491.5794 -14.5694 -114.3808 36 170 130 0.914
-494.0190 -13.4910 -113.4051 37 171 129 0.935
-487.6503 -13.5203 -114.8864 37 171 129 0.899
-492.3779 -12.9391 -113.4982 38 172 129 0.916
-490.7337 -16.4420 -114.0956 33 167 132 0.822
-489.1821 -16.3300 -114.4457 33 167 132 0.918
-493.7194 -13.7123 -114.1241 37 171 129 0.920
-501.6788 -11.9744 -120.3100 40 174 127 0.835
-529.2190 -16.5418 -117.0025 33 167 132 0.876
-491.6273 -15.1149 -114.8112 35 169 130 0.891
-514.3196 -12.8464 -117.1530 39 173 128 0.890
-512.3541 -14.0630 -114.3858 36 170 130 0.872
-493.2325 -15.6663 -114.8317 35 168 131 0.928
-490.4740 -16.6117 -118.9990 33 167 132 0.459
-534.5504 -15.0729 -116.4307 35 169 130 0.571
-491.8906 -13.8023 -115.2631 37 171 129 0.883
-490.1171 -16.8489 -114.6042 33 167 132 0.889
-487.2112 -14.1265 -114.8723 36 170 130 0.938
-491.7193 -12.8767 -113.4098 39 173 128 0.918
-491.3235 -13.3627 -113.3977 38 172 129 0.922
-516.0787 -8.0772 -128.9504 48 180 122 0.936
-515.6403 -10.8071 -128.7751 42 176 126 0.928
-501.6521 -9.3209 -123.5649 46 178 124 0.822
-495.8922 -10.9341 -121.2553 42 176 126 0.784
-507.7289 -9.8659 -121.8952 44 177 125 0.628
-490.5196 -14.7936 -118.9738 35 169 130 0.826
-496.3618 -11.7348 -119.6569 41 175 127 0.737
-501.3890 -11.2983 -119.5490 41 175 127 0.637
-511.4901 -11.8281 -120.4289 40 174 127 0.623
-506.5649 -8.7086 -117.5647 47 179 123 0.903
-503.7848 -9.6903 -117.5495 44 177 125 0.893
-511.6879 -6.8462 -117.2235 51 182 121 0.935
-511.8916 -10.9577 -117.2794 42 176 126 0.927
-511.5876 -15.7967 -116.8227 34 167 132 0.353
-537.7031 -24.7943 -115.5356 30 153 138 0.651
-501.7469 -15.0782 -115.0249 35 169 130 0.639
-508.1455 -8.3803 -113.8642 47 179 123 0.936
-495.7522 -13.8208 -115.3673 37 171 129 0.912
-493.3250 -15.7234 -115.6553 35 168 131 0.682
-494.6410 -12.1154 -114.8039 40 174 127 0.843
-495.7163 -11.5007 -114.2607 41 175 127 0.938
-492.5007 -14.5411 -114.3957 36 170 130 0.935
-492.4505 -14.5949 -114.1585 36 170 130 0.901
-491.3200 -12.7212 -114.0793 39 173 128 0.860
-491.9661 -13.1088 -113.9553 38 172 129 0.919
-487.3205 -13.7076 -115.1099 37 171 129 0.906
-490.8212 -14.5519 -114.1099 36 170 130 0.914
-490.6366 -14.9516 -113.9113 35 169 130 0.917
-514.4080 -16.7729 -113.1766 33 167 132 0.896
-521.5403 -15.3997 -114.0788 35 168 131 0.926
-493.9669 -16.9138 -115.3810 33 166 133 0.882
-543.8240 -16.3121 -113.0154 34 167 132 0.825
-494.1371 -12.1360 -113.7305 40 174 127 0.882
-490.9904 -13.2617 -119.4346 38 172 129 0.776
-512.0180 -7.3802 -119.9400 50 181 122 0.900
-497.4563 -15.5180 -119.7780 35 168 131 0.424
-497.8282 -13.1463 -121.3116 38 172 129 0.805
-489.8061 -12.2623 -118.3244 40 174 127 0.867
-499.1546 -14.3536 -118.7980 36 170 130 0.603
-492.9756 -10.8471 -117.5947 42 176 126 0.845
-502.7085 -11.5226 -117.8712 41 175 127 0.891
-504.1593 -8.8487 -116.5147 47 179 123 0.928
-512.7641 -13.6083 -116.1309 37 171 129 0.885
-495.5402 -15.4474 -115.2692 35 168 131 0.916
-493.1260 -12.7680 -114.4904 39 173 128 0.870
-491.0703 -15.8395 -114.7809 34 167 132 0.882
-491.3707 -16.4159 -114.7657 33 167 132 0.916
-491.2547 -15.4728 -114.4869 35 168 131 0.906
-491.9705 -12.8325 -113.8613 39 173 128 0.930
-490.1169 -16.5394 -114.6160 33 167 132 0.833
-549.8510 -17.5184 -111.0769 32 165 133 0.938
-489.6379 -13.2948 -118.5257 38 172 129 0.894
-568.9521 -25.2398 -100.7842 30 153 138 0.880
-495.4923 -13.8839 -120.9027 37 171 129 0.789
-514.0035 -6.4781 -126.5661 53 183 120 0.831
-506.2516 -12.2041 -123.5066 40 174 127 0.729
-496.5546 -15.3251 -119.9180 35 168 131 0.565
-504.6282 -13.8257 -126.2167 37 171 129 0.842
-490.5705 -15.8563 -120.4538 34 167 132 0.824
-486.3246 -16.2464 -118.8566 34 167 132 0.843
-500.4160 -10.0336 -122.3051 44 177 125 0.875
-491.5986 -14.7328 -119.9130 35 169 130 0.687
-487.2394 -16.2047 -119.2984 34 167 132 0.790
-517.6777 -19.3778 -124.9606 31 162 134 0.478
-494.3447 -11.3043 -117.7773 41 175 127 0.939
-493.6165 -11.1307 -117.6672 42 176 126 0.906
-501.0316 -13.1677 -120.2641 38 172 129 0.887
-517.9546 -5.9108 -115.1116 54 184 119 0.906
-501.3319 -10.5304 -114.1010 43 177 125 0.910
-511.4712 -10.8954 -118.3079 42 176 126 0.853
-493.9877 -11.7301 -113.0746 41 175 127 0.935
-507.6457 -11.0762 -118.6029 42 176 126 0.880
-494.3868 -14.0561 -114.7285 36 170 130 0.804
-508.3033 -9.1876 -117.1576 46 178 124 0.875
-490.8821 -16.2744 -119.1393 34 167 132 0.467
-495.6718 -15.3846 -122.4775 35 168 131 0.844
-496.3139 -12.5102 -114.8926 39 173 128 0.889
-494.4294 -16.1647 -114.4032 34 167 132 0.934
-510.7291 -13.1560 -127.9443 38 172 129 0.836
-507.5020 -13.8529 -126.2592 37 171 129 0.658
-496.0164 -10.9737 -117.9068 42 176 126 0.896
-496.0901 -15.1169 -115.1170 35 169 130 0.858
-495.8301 -12.8055 -114.3590 39 173 128 0.923
-501.3053 -12.8735 -112.8390 39 173 128 0.802
-495.0923 -16.4839 -114.3112 33 167 132 0.921
-494.3543 -12.3475 -113.9212 39 173 128 0.920
-494.0661 -11.8970 -112.5238 40 174 127 0.892
-490.1865 -13.6303 -119.3109 37 171 129 0.897
-505.7487 -8.7780 -123.6905 47 179 123 0.903
-512.0267 -15.6103 -111.9208 35 168 131 0.731
-489.1403 -16.2494 -119.4488 34 167 132 0.739
-513.1848 -17.8629 -119.5415 32 165 133 0.533
-503.1998 -12.3415 -120.7252 39 173 128 0.918
-531.7043 -12.2910 -121.0542 40 174 127 0.606
-486.2851 -16.9484 -118.3764 33 166 133 0.853
-490.8055 -12.2486 -118.3960 40 174 127 0.854
-489.0460 -16.1785 -119.0724 34 167 132 0.691
-508.2720 -7.1076 -115.8114 51 182 121 0.888
-510.4508 -13.6631 -115.7131 37 171 129 0.555
-501.0612 -12.1062 -115.1900 40 174 127 0.898
-503.4906 -10.1435 -113.9308 43 177 125 0.800
-509.8539 -16.0937 -112.9314 34 167 132 0.874
-495.4881 -12.5365 -115.0889 39 173 128 0.927
-500.5198 -14.7052 -116.0825 35 169 130 0.886
-493.9522 -12.1307 -114.8405 40 174 127 0.851
-496.3054 -13.2664 -115.5259 38 172 129 0.865
-494.7749 -16.9259 -115.5065 33 166 133 0.717
-491.7809 -16.2274 -114.6429 34 167 132 0.830
-494.3696 -16.6090 -114.8078 33 167 132 0.773
-490.4778 -12.7257 -119.4316 39 173 128 0.872
-489.6333 -16.2209 -119.2687 34 167 132 0.755
-497.9521 -13.2364 -115.7995 38 172 129 0.890
-505.9102 -10.4145 -115.2212 43 177 125 0.860
-487.8619 -16.9310 -118.4629 33 166 133 0.677
-501.3917 -12.0313 -120.0780 40 174 127 0.922
-496.7040 -11.6988 -118.7254 41 175 127 0.929
-494.2869 -14.8374 -115.4525 35 169 130 0.899
-494.3757 -11.8947 -114.5250 40 174 127 0.859
-522.2777 -16.5927 -111.8953 33 167 132 0.909
-492.8493 -15.1428 -114.3050 35 169 130 0.913
-494.2568 -12.5336 -113.7021 39 173 128 0.866
-501.3756 -12.8719 -115.7765 39 173 128 0.877
-515.7355 -15.2614 -115.6379 35 168 131 0.903
-502.1470 -11.8266 -114.4566 40 174 127 0.908
-489.8386 -15.4950 -119.3382 35 168 131 0.794
-555.2731 -15.1123 -113.0980 35 169 130 0.914
-497.8896 -14.2941 -116.0560 36 170 130 0.783
-509.3792 -8.4639 -114.2012 47 179 123 0.934
-524.9041 -16.0822 -111.9116 34 167 132 0.917
-513.1075 -12.5528 -127.9400 39 173 128 0.701
-489.5727 -13.4795 -119.3398 37 171 129 0.873
-491.5649 -13.7331 -119.1548 37 171 129 0.748
-497.1569 -14.2856 -119.9797 36 170 130 0.629
-521.1346 -12.2314 -111.6592 40 174 127 0.805
-503.9572 -15.9492 -114.3281 34 167 132 0.917
-563.2407 -16.3618 -112.4921 33 167 132 0.653
-493.9636 -12.5190 -114.7034 39 173 128 0.855
-494.5632 -12.4809 -114.5080 39 173 128 0.852
-492.0878 -16.8483 -115.2672 33 167 132 0.827
-492.8928 -13.2726 -114.5756 38 172 129 0.863
-493.4594 -15.0780 -114.4122 35 169 130 0.912
-488.7591 -14.7218 -118.9951 35 169 130 0.875
-496.4792 -13.7599 -119.8763 37 171 129 0.761
-490.2301 -14.7679 -118.9054 35 169 130 0.770
-551.2073 -11.8738 -116.1728 40 174 127 0.875
-498.1888 -15.8869 -114.6180 34 167 132 0.875
-509.3468 -15.6256 -112.5611 35 168 131 0.869
-494.0975 -14.4589 -114.2661 36 170 130 0.845
-504.1812 -8.8090 -116.9969 47 179 123 0.914
-533.9980 -13.1914 -113.5331 38 172 129 0.852
-518.9894 -14.7546 -116.4122 35 169 130 0.798
-496.2770 -14.2651 -115.3075 36 170 130 0.869
-495.7860 -12.0979 -114.8170 40 174 127 0.910
-496.0842 -13.7261 -116.0256 37 171 129 0.929
-524.6829 -10.5055 -132.4730 43 177 125 0.832
-505.9659 -7.5128 -124.6187 50 181 122 0.894
-490.7070 -16.5533 -118.9675 33 167 132 0.753
-502.0971 -12.0245 -120.6691 40 174 127 0.921
-509.1365 -10.5007 -118.7318 43 177 125 0.787
-511.9799 -7.9465 -117.1458 48 180 122 0.930
-522.1070 -4.3777 -115.4581 57 185 118 0.865
-508.0395 -7.1880 -115.0525 51 182 121 0.923
-498.3219 -14.3412 -115.3629 36 170 130 0.896
-510.1296 -11.4321 -113.3573 41 175 127 0.904
-497.7339 -13.5975 -115.2091 37 171 129 0.907
-519.5103 -13.6500 -111.9035 37 171 129 0.723
-495.9714 -15.2651 -115.1170 35 168 131 0.904
-490.4050 -16.5482 -118.9668 33 167 132 0.635
-491.7397 -16.5117 -118.9903 33 167 132 0.732
-491.0046 -16.5145 -119.1668 33 167 132 0.650
-505.6893 -14.3659 -121.9474 36 170 130 0.761
-566.6107 -13.6644 -116.0112 37 171 129 0.560
-515.5031 -11.1165 -113.4729 42 176 126 0.915
-503.3360 -8.6028 -123.9257 47 179 123 0.819
-497.5035 -10.4973 -121.7018 43 177 125 0.835
-490.9959 -15.9874 -119.4224 34 167 132 0.864
-507.5516 -13.3558 -125.8180 38 172 129 0.688
-499.9949 -10.3193 -118.1755 43 177 125 0.913
-520.5474 -17.9912 -120.1116 32 165 133 0.308
-503.4341 -16.9510 -116.6415 33 166 133 0.788
-519.4808 -16.5291 -113.3890 33 167 132 0.903
-499.2249 -15.8248 -117.1393 34 167 132 0.842
-494.6288 -11.8153 -114.7325 40 174 127 0.887
-494.8306 -13.1267 -115.5814 38 172 129 0.910
-520.3391 -16.4491 -115.2770 33 167 132 0.906
-515.1392 -10.1440 -116.4278 43 177 125 0.928
-514.2285 -10.4164 -121.1871 43 177 125 0.672
-513.0515 -10.4166 -119.8227 43 177 125 0.915
-506.7336 -12.9117 -118.0551 38 172 129 0.856
-516.9806 -15.6845 -117.0810 35 168 131 0.774
-508.8895 -16.9227 -116.9237 33 166 133 0.751
-506.5630 -13.1702 -126.4045 38 172 129 0.747
-508.4421 -11.0439 -126.4132 42 176 126 0.751
-494.8135 -15.8624 -121.1742 34 167 132 0.665
-491.8397 -12.6661 -119.9549 39 173 128 0.893
-490.9070 -13.2315 -119.5270 38 172 129 0.894
-490.4918 -16.0631 -119.4718 34 167 132 0.741
-490.8781 -13.3325 -119.0472 38 172 129 0.885
-504.0688 -13.0076 -121.2730 38 172 129 0.900
-503.7071 -12.2175 -120.1527 40 174 127 0.907
-506.2819 -14.7326 -115.7058 35 169 130 0.896
-498.7614 -12.9553 -115.1322 38 172 129 0.803
-494.9030 -14.9419 -115.4609 35 169 130 0.910
-494.4481 -15.2801 -115.5712 35 168 131 0.938
-493.7393 -15.6751 -115.6094 35 168 131 0.922
-495.5449 -13.1073 -114.6686 38 172 129 0.852
-495.8257 -12.1398 -114.3830 40 174 127 0.930
-495.4835 -12.7467 -114.4399 39 173 128 0.926
-495.8731 -11.6617 -114.2290 41 175 127 0.882
-494.6311 -13.3577 -114.6136 38 172 129 0.862
-496.5765 -11.6046 -113.9533 41 175 127 0.878
-495.7401 -14.6939 -114.3103 35 169 130 0.840
-497.8361 -13.6158 -113.7007 37 171 129 0.842
-494.2666 -13.7195 -114.5811 37 171 129 0.863
-494.3659 -13.8694 -114.5210 37 171 129 0.861
-493.0098 -15.5591 -114.9221 35 168 131 0.855
-494.3905 -13.8019 -114.3424 37 171 129 0.866
-496.0380 -11.4497 -113.6023 41 175 127 0.898
-494.8090 -12.7341 -114.0395 39 173 128 0.883
-494.8026 -13.6106 -114.0105 37 171 129 0.871
-578.3163 -12.6619 -112.6320 39 173 128 0.548
-549.4772 -20.5377 -131.4958 30 160 135 0.873
-494.2600 -15.9795 -119.5945 34 167 132 0.770
-498.3578 -13.1138 -118.9777 38 172 129 0.844
-504.4559 -10.6851 -120.7123 42 176 126 0.707
-500.2416 -13.5080 -120.2340 37 171 129 0.749
-503.9600 -10.7206 -119.5233 42 176 126 0.938
-514.1465 -12.5102 -116.4844 39 173 128 0.562
-511.0578 -10.7541 -115.0470 42 176 126 0.902
-505.9757 -12.4008 -115.1224 39 173 128 0.893
-499.9185 -11.7360 -116.7217 41 175 127 0.773
-507.1924 -15.0667 -115.7900 35 169 130 0.895
-516.3156 -14.1807 -111.4946 36 170 130 0.904
-495.8894 -13.7857 -115.3075 37 171 129 0.903
-535.6580 -15.7644 -113.1191 34 167 132 0.915
-496.1369 -11.0893 -118.6642 42 176 126 0.892
-491.6067 -16.6918 -119.0521 33 167 132 0.782
-497.3633 -14.7488 -116.1830 35 169 130 0.921
-494.0459 -16.1722 -119.3647 34 167 132 0.553
-497.7916 -16.4960 -115.0157 33 167 132 0.904
-495.8142 -12.2603 -114.6774 40 174 127 0.926
-495.4282 -12.0234 -114.6707 40 174 127 0.934
-504.9283 -13.0832 -119.7628 38 172 129 0.827
-507.2003 -7.6244 -116.4007 50 181 122 0.942
-511.7298 -6.9912 -115.6787 51 182 121 0.929
-513.2025 -17.0230 -116.2858 33 166 133 0.558
-511.9355 -7.9450 -117.8535 48 180 122 0.807
-516.6630 -8.0295 -114.4596 48 180 122 0.898
-496.8103 -13.3271 -115.9687 38 172 129 0.881
-509.2616 -11.2489 -113.5760 41 175 127 0.877
-520.5761 -12.3699 -111.2109 39 173 128 0.894
-495.8727 -13.1398 -115.3413 38 172 129 0.843
-494.8004 -15.3079 -115.6922 35 168 131 0.910
-500.6218 -11.7615 -115.9539 40 174 127 0.791
-502.8277 -15.8560 -113.9422 34 167 132 0.777
-495.0040 -16.6346 -115.4174 33 167 132 0.804
-498.5947 -13.6906 -114.3458 37 171 129 0.820
-491.8538 -16.2837 -119.1743 34 167 132 0.760
-513.9197 -9.4514 -114.0960 46 178 124 0.923
-490.3846 -16.1093 -119.4334 34 167 132 0.846
-500.4667 -13.9339 -120.9405 37 171 129 0.848
-503.0067 -12.2871 -121.0180 40 174 127 0.916
-513.5029 -12.2344 -123.3637 40 174 127 0.836
-507.7238 -14.6241 -122.0538 35 169 130 0.864
-499.6866 -13.4432 -118.8480 38 172 129 0.597
-495.5158 -16.8537 -118.5319 33 167 132 0.615
-503.3037 -9.9763 -118.4335 44 177 125 0.912
-503.1066 -17.4812 -119.6066 32 165 133 0.709
-566.3078 -14.0604 -107.0345 36 170 130 0.918
-496.5731 -15.1076 -115.6556 35 169 130 0.932
-496.4390 -14.1647 -114.6585 36 170 130 0.916
-507.1970 -12.5514 -119.8429 39 173 128 0.883
-497.3182 -11.9651 -118.7897 40 174 127 0.930
-575.4478 -51.4007 -154.2052 46 109 142 0.937
-508.9301 -17.9585 -120.5887 32 165 133 0.568
-509.6452 -17.4184 -126.7945 33 166 133 0.752
-498.5916 -17.4103 -121.3273 33 166 133 0.696
-505.8801 -12.2749 -122.0289 40 174 127 0.911
-493.0354 -16.5727 -119.0909 33 167 132 0.660
-489.7945 -16.8014 -118.3552 33 167 132 0.730
-499.8453 -12.8340 -118.3632 39 173 128 0.718
-511.3195 -9.2472 -117.5728 46 178 124 0.853
-512.0954 -13.8142 -116.2236 37 171 129 0.855
-499.8854 -16.5443 -115.1737 33 167 132 0.903
-494.0997 -15.6234 -115.6154 35 168 131 0.837
-494.2841 -15.4486 -115.5515 35 168 131 0.916
-494.3007 -15.3412 -115.4484 35 168 131 0.918
-503.1017 -11.7238 -118.8768 41 175 127 0.927
-511.1065 -8.8710 -117.9238 47 179 123 0.867
-505.6007 -11.8910 -121.9229 40 174 127 0.909
-500.9478 -13.9030 -118.7600 37 171 129 0.810
-513.1744 -10.2250 -114.7160 43 177 125 0.937
-557.6831 -23.3761 -136.2372 30 155 137 0.670
-507.6119 -10.9415 -120.3959 42 176 126 0.820
-516.0090 -11.4461 -120.3391 41 175 127 0.877
-517.0661 -9.4450 -118.6945 46 178 124 0.634
-508.6139 -7.8226 -117.6600 48 180 122 0.910
-502.2057 -16.1228 -117.3721 34 167 132 0.485
-512.3019 -7.5003 -116.1173 50 181 122 0.937
-539.1500 -16.6276 -111.7025 33 167 132 0.675
-500.3496 -13.7502 -115.2217 37 171 129 0.912
-496.3430 -13.4095 -115.4608 38 172 129 0.854
-497.2722 -14.0489 -114.9718 36 170 130 0.843
-495.4679 -14.4196 -116.2255 36 170 130 0.822
-496.6079 -12.1582 -114.5019 40 174 127 0.897
-506.2159 -12.4640 -118.7275 39 173 128 0.855
-507.8163 -11.7275 -120.5915 41 175 127 0.885
-497.1796 -16.8988 -119.2723 33 166 133 0.290
-504.7092 -10.8429 -119.6976 42 176 126 0.918
-506.4139 -13.4992 -119.1302 37 171 129 0.776
-498.8254 -14.3391 -116.2475 36 170 130 0.752
-496.9366 -13.7727 -115.6166 37 171 129 0.910
-497.8200 -13.2834 -115.2243 38 172 129 0.914
-496.3326 -14.7149 -115.1118 35 169 130 0.848
-494.7544 -15.3903 -115.5264 35 168 131 0.918
-501.2886 -12.0942 -120.1726 40 174 127 0.915
-509.7178 -12.4765 -123.2663 39 173 128 0.866
-517.3962 -11.7205 -121.6886 41 175 127 0.926
-496.8103 -13.2222 -115.8054 38 172 129 0.900
-503.0966 -11.3949 -120.7649 41 175 127 0.919
-498.6754 -13.3621 -119.7944 38 172 129 0.706
-501.8808 -11.3751 -120.8650 41 175 127 0.906
-508.0052 -11.4031 -119.5130 41 175 127 0.903
-513.2570 -7.1174 -115.2192 51 182 121 0.929
-505.2003 -11.6140 -117.9276 41 175 127 0.698
-519.8997 -8.5958 -114.0221 47 179 123 0.940
-501.4239 -13.3462 -114.6656 38 172 129 0.812
-527.8685 -13.3535 -109.1717 38 172 129 0.911
-496.9099 -13.4172 -116.1206 38 172 129 0.919
-513.1365 -10.4245 -120.3352 43 177 125 0.895
-515.1344 -12.2874 -114.9734 40 174 127 0.922
-522.8231 -12.0309 -111.3892 40 174 127 0.881
-491.5192 -15.8519 -119.4213 34 167 132 0.908
-502.4015 -11.4510 -121.2683 41 175 127 0.877
-502.8260 -13.8922 -119.7834 37 171 129 0.716
-504.7863 -12.1992 -119.7953 40 174 127 0.878
-504.4862 -13.0937 -121.6097 38 172 129 0.883
-500.8796 -12.2019 -118.9128 40 174 127 0.884
-503.1716 -9.4210 -118.3988 46 178 124 0.886
-517.6128 -11.3037 -117.3659 41 175 127 0.617
-511.2340 -8.6751 -115.4108 47 179 123 0.821
-505.8677 -13.6129 -117.8852 37 171 129 0.701
-513.5662 -12.2367 -114.2256 40 174 127 0.900
-525.9268 -13.0367 -108.6823 38 172 129 0.790
-497.2600 -13.6366 -115.1754 37 171 129 0.922
-510.9124 -13.4106 -114.2701 38 172 129 0.914
-491.9813 -15.5698 -119.4774 35 168 131 0.750
-505.3094 -10.2317 -118.8702 43 177 125 0.907
-501.2885 -11.6588 -120.8237 41 175 127 0.904
-495.6982 -13.3698 -115.5824 38 172 129 0.936
-501.4541 -11.4792 -121.8844 41 175 127 0.809
-492.4220 -16.4746 -119.2829 33 167 132 0.843
-508.5461 -11.8423 -121.7543 40 174 127 0.606
-496.3871 -16.0338 -119.5607 34 167 132 0.682
-505.7139 -14.4011 -121.0811 36 170 130 0.301
-510.1683 -10.7604 -118.8352 42 176 126 0.868
-501.8073 -10.4395 -118.3886 43 177 125 0.901
-511.3600 -9.8005 -117.5587 44 177 125 0.899
-515.4568 -5.3046 -116.3290 56 185 118 0.926
-518.3478 -13.8417 -116.0541 37 171 129 0.852
-510.5507 -14.8328 -115.1999 35 169 130 0.907
-513.7283 -6.4985 -113.1393 53 183 120 0.938
-510.8918 -15.5957 -113.9180 35 168 131 0.748
-512.0714 -9.2258 -115.9299 46 178 124 0.831
-496.1350 -13.0797 -115.2889 38 172 129 0.897
-496.6051 -15.5249 -115.2655 35 168 131 0.852
-589.4861 -17.7459 -112.1813 32 165 133 0.915
-498.1645 -14.2981 -115.2336 36 170 130 0.847
-491.6659 -15.8441 -119.2867 34 167 132 0.830
-538.7401 -11.6678 -102.4396 41 175 127 0.892
-502.8872 -11.3421 -122.0742 41 175 127 0.797
-505.1365 -13.2305 -121.4994 38 172 129 0.879
-494.6941 -16.6334 -118.5205 33 167 132 0.668
-511.2907 -6.7969 -118.6910 51 182 121 0.922
-510.4026 -10.0636 -118.2061 43 177 125 0.884
-506.9554 -7.3121 -117.2790 50 181 122 0.843
-508.1057 -9.6992 -117.3244 44 177 125 0.852
-517.1693 -14.4467 -115.9481 36 170 130 0.883
-517.8644 -8.3397 -112.8600 47 179 123 0.797
-497.1878 -13.9853 -115.7210 37 171 129 0.922
-534.2192 -12.0907 -106.7713 40 174 127 0.938
-497.3944 -14.9425 -115.4554 35 169 130 0.844
-497.0168 -15.1340 -115.3705 35 169 130 0.854
-511.7424 -11.6808 -116.0638 41 175 127 0.724
-531.0984 -10.7989 -106.8107 42 176 126 0.898
-546.8549 -10.3087 -102.4184 43 177 125 0.913
-501.2008 -17.2501 -119.2108 33 166 133 0.720
-493.4861 -16.2827 -119.6528 34 167 132 0.890
-539.2195 -8.1349 -132.5954 48 180 122 0.913
-503.0037 -11.1776 -121.8298 42 176 126 0.916
-509.6551 -11.3810 -123.7203 41 175 127 0.854
-516.7682 -11.5486 -125.5833 41 175 127 0.896
-506.5976 -12.6987 -122.3038 39 173 128 0.860
-494.8276 -16.8353 -119.6809 33 167 132 0.761
-494.5894 -16.5406 -119.3858 33 167 132 0.801
-505.8674 -11.1650 -121.0415 42 176 126 0.860
-494.3182 -16.5739 -119.1011 33 167 132 0.511
-497.1577 -16.8914 -119.4496 33 167 132 0.529
-506.8751 -11.7599 -122.3250 40 174 127 0.850
-514.3480 -12.5725 -119.5567 39 173 128 0.916
-508.5142 -9.9121 -117.3236 44 177 125 0.781
-494.2735 -16.7390 -118.6652 33 167 132 0.516
-511.0838 -7.6401 -116.2498 50 181 122 0.927
-530.3556 -15.4943 -115.9423 35 168 131 0.819
-517.3890 -10.7557 -115.6385 42 176 126 0.905
-555.9446 -13.2169 -111.9961 38 172 129 0.858
-563.1182 -17.8711 -111.9692 32 165 133 0.875
-506.0619 -11.4287 -117.8792 41 175 127 0.815
-504.4688 -13.2961 -115.2164 38 172 129 0.888
-513.0143 -11.5594 -114.8753 41 175 127 0.922
-496.6526 -13.5376 -115.3817 37 171 129 0.895
-538.2141 -14.6046 -125.3965 36 170 130 0.571
-497.0938 -13.4916 -115.8379 37 171 129 0.923
-504.1898 -11.5783 -122.7598 41 175 127 0.803
-492.9007 -16.2354 -119.4442 34 167 132 0.886
-492.5877 -16.4014 -119.2833 33 167 132 0.899
-493.2447 -16.1137 -119.2983 34 167 132 0.837
-502.6465 -10.1179 -119.2362 43 177 125 0.927
-506.6420 -13.1349 -118.0234 38 172 129 0.839
-506.1646 -7.9571 -116.4332 48 180 122 0.922
-514.2928 -11.4963 -114.7972 41 175 127 0.738
-521.0645 -11.2844 -111.4027 41 175 127 0.786
-497.7929 -14.8411 -116.0242 35 169 130 0.825
-496.4240 -13.9081 -116.2215 37 171 129 0.911
-523.8339 -10.7399 -121.6233 42 176 126 0.696
-507.5012 -11.6876 -124.4557 41 175 127 0.915
-509.3177 -11.3745 -124.5457 41 175 127 0.906
-495.4142 -15.7473 -119.9315 35 168 131 0.773
-504.7506 -10.6350 -122.0690 42 176 126 0.920
-503.3965 -11.0839 -121.4608 42 176 126 0.795
-502.7877 -12.5049 -120.2924 39 173 128 0.877
-512.4172 -14.5236 -121.7087 36 170 130 0.606
-511.5538 -6.9465 -118.4118 51 182 121 0.923
-499.7280 -13.3229 -119.4550 38 172 129 0.706
-516.2761 -8.6257 -116.8927 47 179 123 0.931
-512.1179 -6.4124 -116.8179 53 183 120 0.932
-500.5370 -14.0561 -118.5765 36 170 130 0.514
-507.1952 -9.4054 -117.9329 46 178 124 0.856
-515.7007 -11.7109 -115.3057 41 175 127 0.883
-508.6687 -11.3424 -116.2585 41 175 127 0.738
-512.7267 -11.5660 -116.0497 41 175 127 0.882
-521.8298 -11.9411 -128.2102 40 174 127 0.713
-503.9921 -11.8965 -122.7503 40 174 127 0.806
-496.1139 -15.8445 -119.7071 34 167 132 0.800
-513.5724 -5.5449 -126.9276 54 184 119 0.851
-511.9671 -11.9870 -126.0682 40 174 127 0.909
-507.9762 -12.0012 -124.4688 40 174 127 0.782
-497.8521 -15.6227 -120.4537 35 168 131 0.733
-509.9713 -15.2945 -121.6863 35 168 131 0.286
-510.1591 -13.1978 -118.4157 38 172 129 0.751
-507.1448 -7.0352 -117.7658 51 182 121 0.928
-533.8245 -10.9575 -116.2349 42 176 126 0.848
-507.7728 -7.0230 -116.8006 51 182 121 0.927
-517.3254 -8.7780 -115.4329 47 179 123 0.919
-506.7514 -8.5711 -116.0221 47 179 123 0.846
-514.1330 -14.9847 -114.6030 35 169 130 0.890
-513.8085 -11.1015 -116.8646 42 176 126 0.874
-518.1725 -9.6995 -113.2510 44 177 125 0.926
-513.6578 -9.4844 -113.7049 44 177 125 0.926
-506.6033 -12.6999 -114.4927 39 173 128 0.808
-519.2057 -14.5336 -109.5020 36 170 130 0.933
-541.4574 -10.9145 -100.1484 42 176 126 0.915
-498.4195 -14.1535 -115.9965 36 170 130 0.912
-510.4519 -11.8491 -119.9561 40 174 127 0.919
-510.5658 -15.9419 -112.3902 34 167 132 0.930
-513.8024 -5.2960 -126.4000 56 185 118 0.928
-511.8760 -11.4631 -125.7941 41 175 127 0.885
-525.7145 -12.6286 -130.4248 39 173 128 0.861
-507.5507 -9.5167 -122.4778 44 177 125 0.820
-504.4682 -17.0654 -121.7533 33 166 133 0.693
-506.0092 -11.2050 -123.3912 41 175 127 0.902
-500.9013 -15.7322 -120.4167 35 168 131 0.537
-508.7176 -7.8597 -118.6936 48 180 122 0.914
-509.5572 -8.3107 -118.6287 48 180 122 0.904
-503.4402 -9.6651 -118.4762 44 177 125 0.927
-508.4391 -9.0293 -118.6602 46 178 124 0.900
-506.4336 -10.9222 -118.1455 42 176 126 0.923
-509.0520 -10.7360 -118.0498 42 176 126 0.866
-506.2688 -12.5071 -117.8320 39 173 128 0.879
-508.7822 -6.2676 -117.2334 53 183 120 0.935
-511.4139 -8.8636 -117.3013 47 179 123 0.892
-510.3419 -6.6660 -116.1450 51 182 121 0.926
-510.4073 -9.5485 -115.7696 44 177 125 0.851
-516.1379 -7.8215 -115.0763 48 180 122 0.897
-511.3640 -12.6160 -115.4073 39 173 128 0.898
-508.5848 -7.4243 -115.1255 50 181 122 0.934
-514.5986 -9.1663 -114.1356 46 178 124 0.900
-515.1105 -11.6127 -113.1383 41 175 127 0.929
-519.9471 -10.0562 -111.6576 43 177 125 0.899
-521.3190 -14.2506 -110.2931 36 170 130 0.899
-520.7375 -11.6213 -109.5338 41 175 127 0.830
-514.0034 -11.1441 -114.9620 42 176 126 0.940
-505.2889 -13.2062 -120.4449 38 172 129 0.762
-521.2426 -11.4900 -120.6287 41 175 127 0.859
-517.7645 -9.3915 -120.2259 46 178 124 0.825
-512.6193 -11.3842 -120.9118 41 175 127 0.879
-503.7421 -15.5290 -120.6033 35 168 131 0.608
-517.2780 -12.7631 -118.5477 39 173 128 0.645
-501.4034 -11.6803 -120.9043 41 175 127 0.853
-497.0811 -15.6331 -120.0473 35 168 131 0.727
-504.6114 -12.5164 -121.3269 39 173 128 0.760
-500.6024 -12.5955 -120.3775 39 173 128 0.827
-496.6662 -16.3713 -119.2466 33 167 132 0.668
-502.9026 -12.1660 -119.8538 40 174 127 0.791
-503.3632 -12.0540 -119.3978 40 174 127 0.789
-504.3566 -13.5499 -118.3718 37 171 129 0.643
-507.8245 -10.8351 -118.2659 42 176 126 0.781
-513.4933 -6.2871 -117.4682 53 183 120 0.856
-507.9813 -6.8748 -116.8047 51 182 121 0.888
-523.1041 -7.7367 -116.1147 50 181 122 0.824
-508.0540 -7.0196 -116.3124 51 182 121 0.888
-514.5834 -9.7758 -115.1869 44 177 125 0.897
-515.7867 -6.0598 -114.9593 53 183 120 0.849
-513.3181 -11.8570 -115.0932 40 174 127 0.890
-514.8373 -6.3250 -114.3541 53 183 120 0.856
-509.9921 -6.8639 -114.3478 51 182 121 0.887
-549.8149 -5.5329 -104.5856 54 184 119 0.872
-508.2404 -16.0111 -113.7225 34 167 132 0.920
-509.4304 -15.5294 -113.1481 35 168 131 0.834
-538.5765 -12.2791 -104.6373 40 174 127 0.933
-497.8426 -13.3412 -115.9135 38 172 129 0.916
-536.3110 -13.4069 -124.9789 38 172 129 0.258
-514.4963 -14.1162 -122.6511 36 170 130 0.393
-497.1450 -16.5736 -119.7616 33 167 132 0.855
-496.3615 -16.5742 -118.9188 33 167 132 0.515
-495.4088 -16.4903 -118.7378 33 167 132 0.528
-512.6833 -13.9548 -115.7657 37 171 129 0.911
-559.8324 -12.0230 -113.2238 40 174 127 0.874
-533.9150 -10.4704 -105.6144 43 177 125 0.938
-514.7657 -12.5765 -115.4559 39 173 128 0.636
-514.9777 -7.7917 -115.6573 48 180 122 0.932
-513.3865 -10.6248 -118.7883 42 176 126 0.884
-510.7937 -11.2735 -118.2437 41 175 127 0.843
-520.4545 -9.0470 -113.9881 46 178 124 0.919
-555.8344 -0.5715 -102.0594 69 191 111 0.937
-549.9502 -4.8171 -100.6748 57 185 118 0.868
-508.0416 -8.4798 -123.4926 47 179 123 0.883
-507.5408 -10.7997 -122.0963 42 176 126 0.824
-503.8428 -11.5017 -119.3114 41 175 127 0.842
-504.8204 -10.9199 -119.1065 42 176 126 0.916
-504.4055 -11.3217 -118.8271 41 175 127 0.913
-503.5598 -11.7700 -118.5541 40 174 127 0.913
-506.6575 -11.3501 -118.7033 41 175 127 0.896
-521.4378 -10.7099 -110.5286 42 176 126 0.844
-513.5869 -6.0004 -116.1035 54 184 119 0.861
-517.6588 -7.0170 -114.2696 51 182 121 0.739
-507.9241 -9.5283 -118.1768 44 177 125 0.912
-510.8501 -9.7412 -117.2303 44 177 125 0.919
-505.7321 -11.2543 -120.1182 41 175 127 0.894
-517.9803 -10.8994 -116.7376 42 176 126 0.853
-510.3251 -15.5094 -113.4550 35 168 131 0.912
-512.9553 -6.4440 -126.1998 53 183 120 0.881
-507.3848 -9.9323 -121.3583 44 177 125 0.838
-507.5356 -9.6538 -119.9642 44 177 125 0.839
-545.9680 -7.9084 -118.1845 48 180 122 0.557
-514.3718 -11.9053 -115.6530 40 174 127 0.867
-514.9918 -9.5204 -114.6128 44 177 125 0.928
-531.3245 -8.8487 -109.8889 47 179 123 0.817
-525.8683 -4.6065 -110.3093 57 185 118 0.857
-535.9715 -12.9927 -107.8152 38 172 129 0.815
-509.1035 -16.0277 -113.9070 34 167 132 0.838
-569.4362 -7.0811 -96.9192 51 182 121 0.866
-506.8344 -10.2184 -117.6419 43 177 125 0.844
-515.2697 -10.3588 -115.2566 43 177 125 0.890
-504.2592 -10.3247 -122.2069 43 177 125 0.892
-505.9442 -14.1079 -121.5780 36 170 130 0.695
-509.6414 -7.9074 -117.2072 48 180 122 0.864
-507.7862 -13.2417 -116.2453 38 172 129 0.768
-514.1621 -10.2199 -114.7776 43 177 125 0.813
-511.5685 -7.8443 -114.8680 48 180 122 0.867
-513.1062 -9.7166 -114.3351 44 177 125 0.913
-509.5097 -10.4845 -123.3192 43 177 125 0.911
-510.3278 -11.1321 -122.9337 42 176 126 0.838
-516.8334 -13.4391 -123.6978 38 172 129 0.763
-508.2540 -14.3662 -116.0601 36 170 130 0.757
-558.7956 -40.5825 -144.4753 38 127 142 0.888
-555.5397 -10.5166 -135.3401 43 177 125 0.694
-500.1911 -16.4518 -119.0973 33 167 132 0.502
-505.9355 -10.3828 -118.7093 43 177 125 0.941
-513.3124 -12.8677 -122.1549 39 173 128 0.779
-499.9512 -15.9983 -119.7241 34 167 132 0.735
-512.2958 -15.9802 -121.1467 34 167 132 0.742
-519.0092 -12.4776 -120.2372 39 173 128 0.819
-504.4201 -16.5355 -120.0222 33 167 132 0.560
-510.5953 -11.0698 -123.8071 42 176 126 0.922
-506.1354 -11.3295 -121.1556 41 175 127 0.910
-506.5673 -10.8617 -121.0041 42 176 126 0.916
-524.6491 -11.1116 -121.8771 42 176 126 0.913
-508.2289 -11.5010 -120.0452 41 175 127 0.832
-511.4227 -10.4894 -121.2541 43 177 125 0.893
-513.0705 -9.4122 -120.4789 46 178 124 0.922
-522.4879 -11.8593 -121.8711 40 174 127 0.923
-509.2525 -10.7240 -118.9911 42 176 126 0.905
-510.5152 -10.5428 -122.9979 43 177 125 0.887
-508.6129 -13.0058 -124.0489 38 172 129 0.851
-512.3530 -12.2014 -125.0956 40 174 127 0.836
-515.8726 -12.8878 -125.9810 39 173 128 0.809
-533.9980 -16.0059 -131.9316 34 167 132 0.787
-512.5771 -9.5317 -120.8152 44 177 125 0.885
-519.7659 -15.9774 -120.7625 34 167 132 0.534
-511.9489 -10.0419 -119.1868 44 177 125 0.920
-512.2644 -12.2736 -119.4107 40 174 127 0.882
-505.8327 -10.6255 -118.7558 42 176 126 0.935
-505.7045 -10.7981 -118.3991 42 176 126 0.935
-510.9202 -9.6832 -118.3363 44 177 125 0.912
-512.9623 -12.7756 -118.4555 39 173 128 0.902
-518.2187 -9.7713 -118.0177 44 177 125 0.744
-516.7061 -9.9711 -118.0373 44 177 125 0.755
-511.8775 -10.8889 -117.9622 42 176 126 0.912
-516.4014 -6.4582 -117.4294 53 183 120 0.852
-509.7113 -12.8852 -117.7498 39 173 128 0.880
-516.7567 -5.7974 -116.9119 54 184 119 0.861
-518.7223 -6.9468 -116.8393 51 182 121 0.830
-512.5485 -9.9912 -117.2949 44 177 125 0.936
-510.4929 -11.5331 -117.5154 41 175 127 0.936
-511.7286 -12.8539 -117.4041 39 173 128 0.927
-510.1104 -12.1192 -117.4514 40 174 127 0.878
-516.5392 -6.4648 -116.5930 53 183 120 0.922
-512.6729 -9.1163 -116.9525 46 178 124 0.886
-533.2205 -2.8548 -115.1866 62 188 115 0.812
-512.1147 -12.3927 -117.1061 39 173 128 0.809
-517.4597 -9.0481 -116.2854 46 178 124 0.850
-519.2321 -3.7679 -115.4957 59 186 117 0.933
-519.1378 -5.6788 -115.4748 54 184 119 0.855
-523.3882 -4.2479 -114.2243 59 186 117 0.921
-518.4531 -7.5075 -115.0162 50 181 122 0.935
-516.5916 -9.4959 -115.4491 44 177 125 0.941
-517.8975 -9.6805 -115.2148 44 177 125 0.939
-517.8184 -10.4297 -115.3093 43 177 125 0.863
-518.1870 -11.2035 -115.2659 41 175 127 0.928
-517.4414 -12.1316 -115.4435 40 174 127 0.838
-518.8629 -8.0461 -114.8556 48 180 122 0.942
-524.8608 -2.8230 -113.7231 62 188 115 0.862
-510.1973 -12.0705 -117.7882 40 174 127 0.916
-519.9962 -10.9123 -114.7978 42 176 126 0.907
-518.5121 -7.8919 -114.8037 48 180 122 0.939
-521.2051 -8.8144 -114.1685 47 179 123 0.915
-517.3704 -7.0810 -114.5892 51 182 121 0.893
-517.3481 -7.6379 -114.6685 50 181 122 0.939
-518.1183 -9.2475 -114.6608 46 178 124 0.900
-518.5856 -10.7594 -114.6623 42 176 126 0.940
-518.0436 -12.5315 -114.8595 39 173 128 0.924
-528.6354 -1.1871 -112.2531 68 190 112 0.865
-517.6608 -7.1769 -114.0955 51 182 121 0.894
-518.5058 -8.7222 -114.0476 47 179 123 0.915
-518.1428 -10.4738 -114.2787 43 177 125 0.942
-518.8415 -11.1134 -114.1947 42 176 126 0.936
-518.6296 -11.9787 -114.1989 40 174 127 0.937
-518.9648 -12.4125 -114.2684 39 173 128 0.927
-517.6115 -8.0126 -114.1219 48 180 122 0.939
-526.0593 -6.7270 -112.5147 51 182 121 0.829
-518.4787 -9.9390 -113.9947 44 177 125 0.903
-518.5319 -11.6103 -114.1629 41 175 127 0.886
-524.9240 -7.5518 -115.3581 50 181 122 0.789
-518.8567 -11.3501 -113.0256 41 175 127 0.940
-516.8491 -10.3058 -113.4439 43 177 125 0.933
-519.2057 -11.7819 -115.1377 40 174 127 0.931
-519.5712 -8.3551 -114.8621 47 179 123 0.935
-517.7330 -10.8482 -115.3244 42 176 126 0.858
-522.6472 -6.5203 -111.2137 53 183 120 0.860
-518.2816 -9.7716 -112.4106 44 177 125 0.940
-523.7661 -3.7650 -110.2567 59 186 117 0.881
-519.9077 -10.7394 -111.8114 42 176 126 0.929
-526.3938 -10.3930 -110.1346 43 177 125 0.830
-516.8271 -8.5549 -114.5759 47 179 123 0.875
-521.0402 -8.8719 -114.0931 47 179 123 0.905
-518.1927 -7.5022 -111.9139 50 181 122 0.906
-524.4926 -11.5788 -110.6588 41 175 127 0.826
-511.8759 -14.9826 -113.8241 35 169 130 0.833
-535.7903 -6.6092 -106.4551 53 183 120 0.846
-526.7663 -6.0956 -111.9560 53 183 120 0.837
-532.8072 -12.3896 -106.9761 39 173 128 0.837
-516.8484 -13.5516 -112.9881 37 171 129 0.819
-506.2513 -15.7744 -120.6002 34 167 132 0.802
-514.1416 -11.9878 -119.4429 40 174 127 0.924
-513.2577 -9.4655 -121.1383 46 178 124 0.876
-506.9797 -15.6701 -123.2314 35 168 131 0.910
-509.8160 -10.6511 -123.3485 42 176 126 0.920
-515.5955 -12.3657 -125.3116 39 173 128 0.917
-510.3409 -12.9014 -123.4399 38 172 129 0.918
-511.9947 -10.3478 -118.9036 43 177 125 0.936
